# 3D point list with one line of data per point:
#   POINT3D_ID, X, Y, Z, R, G, B, ERROR, TRACK[] as (IMAGE_ID, POINT2D_IDX)
# Number of points: 402, mean track length: 3.5352369380315918
1699 1.1564157898625562 0.23950876132505963 1.9219212358206552 156 96 55 0.093235633592588574 4 652 3 797
1442 0.42921492147250612 -0.18039869792747573 2.0846343281816693 118 59 41 0.23406075120771541 14 447 16 371 15 305
333 5.5695727054198088 -0.99559140030872018 10.350100761978901 223 187 113 0.1347228080340043 9 1337 10 793 8 1187 11 810 12 1246
1159 0.55340639504097311 0.38506947186456608 1.4483727240578368 171 105 63 0.23680211650296831 11 1685 12 1625 13 942 14 610
50 0.6271210693606375 0.30689460827305959 1.3592815703463248 166 107 63 0.12228668693938707 9 615 2 1019 10 1031 11 1072 12 585
1700 0.20457932674459395 -0.13583199360401133 -0.92597481662440917 0 0 0 2.1184004087880512 5 1147 6 1617
1443 0.42921492147250612 -0.18039869792747573 2.0846343281816693 118 59 41 0.23406075120771541 14 448 16 372 15 306
334 -4.7741741178488937 -1.4096642596922018 16.457836515528808 235 206 125 0.19298803265178421 9 255 10 800 6 358
1160 0.51363561047730255 0.75583703270696345 1.5543747437570947 114 77 61 0.10902150471452228 11 1697 12 1636 13 1110 14 937 16 771
51 0.831774663436748 0.30245818921571954 1.2543359604573165 192 140 82 0.10654988431692691 9 616 2 566 10 554
1701 -105.11914069203416 -3.9181729220945791 40.923616003460744 179 118 65 0.20717512667672491 7 1503 3 843 8 1509
1444 34.539652978787501 -0.22270910803691826 -6.0834814468531757 219 182 110 0.1300388334344614 13 555 16 383 15 466
335 -14.08574008493969 -1.5878651702509594 21.647123967483918 200 155 88 0.0067680971362612599 9 279 10 814
1161 0.52240799971832952 0.76199294008067031 1.5153467166574193 181 143 94 0.27475156867721934 10 1752 11 1866 12 1637 13 1111 14 795
52 0.68388679578722589 0.31327546422914754 1.3219968279689325 163 100 59 0.10959560294927524 9 617 2 1020 10 564 11 579 12 586
1702 0.86232538959880722 0.086979931735266261 1.8640327932885117 144 87 57 1.5362134488655614 4 810 3 859
1445 14.509215114007 -0.38887290480377212 4.6765125996650898 231 203 121 0.032649793109743475 14 171 16 385
336 -14.08574008493969 -1.5878651702509594 21.647123967483918 200 155 88 0.0067680971362612599 9 280 10 815
1162 12.765548674846245 -2.480181743407706 9.086471588444093 218 183 110 0.093377502856012193 11 1709 12 1653 13 1125
53 0.79062613599340659 0.31099123370772275 1.2658623302829457 170 105 61 0.039566718375937893 9 619 2 571 10 561 11 572
1703 1.1665157717233443 0.089876280703030775 1.7786541537261145 146 87 55 0.081422060885864372 4 811 3 862
1446 20.04373903920672 -0.19302052830415417 1.4086079180446636 216 182 112 0.084391140035713644 13 564 16 389 15 472
337 -2.8004077951489954 -0.90273021873030834 14.57043313431636 231 205 126 0.21139797487118178 9 320 10 836 7 427 6 934
1163 0.54567886375224928 -0.17197271094235128 1.6254189151188785 118 65 40 0.28493825118602684 11 1267 12 1701 13 1165 14 989 16 810 15 589
54 0.80904994257559593 0.31135086382673927 1.2578943685265955 194 140 75 0.17064317746677965 9 620 2 572 10 1033 8 454 11 573
1704 1.1290161216034977 0.097864655884410706 1.8576712378145035 155 85 50 0.19279950615680747 4 734 3 865
1164 0.48555348630468459 -0.05484533215076709 2.0240949148558194 161 102 56 1.5302170735274476 11 1926 12 1715 13 1030
55 0.84631530537387167 0.31134075101703973 1.2504787462261011 171 103 63 0.13735719898159005 9 621 2 569 10 562
1705 1.2291974975692399 0.23952934138298204 1.8371649009494231 125 68 45 0.10050047626479938 4 745 3 876
1448 28.919976743125908 0.49439911031398154 -4.3302067156298563 220 185 114 0.22105640950692151 13 850 16 397 15 486
339 9.0598935496630624 -0.37546709038200321 7.4813448175570496 215 175 97 0.12148942826870172 9 1677 10 860 14 491
1580 14.479244723019645 0.44290751643409343 3.257566042155799 216 177 101 0.033117696700989699 16 201 15 194
471 5.1419564355195231 0.23224962292530243 8.503021111674947 233 205 125 0.50032010954119466 9 2060 10 1918 8 1601 12 1764 13 1340
1166 0.54995690202626568 0.084972864058370748 1.5838692902265499 155 100 68 0.19289142587427349 11 1806 12 1726 13 1199 14 1019
57 0.71986485416785295 0.31717435142834194 1.2997931074850972 193 136 80 0.10071423961455805 9 623 2 577 11 580 12 587
1707 1.576011553712154 -0.11636061932031955 2.7078551874518868 219 177 106 1.1169849224558157 4 979 3 987
1582 93.254618846291308 -7.1250524886445348 -27.708552406944793 162 103 62 0.34120041038072441 13 493 14 408 16 59 15 253 12 1471
473 6.630232012612483 0.26476569833878905 7.6795789693760561 235 207 129 0.23953292523994119 9 2063 10 1921 12 1608 13 1225 14 1153
1168 0.53762648358723608 0.10124804589254312 1.6310833196644485 157 102 63 0.12127070179789164 11 1810 12 1733 13 1207 14 1030 16 839
59 0.78858371000302196 0.31626586130110068 1.2671953037638919 192 139 82 0.083924436280189765 9 625 2 1022 10 1036
1709 0.74525815027175202 0.28512387549768192 2.0316595201709826 147 90 54 0.0074757546366077173 15 208 17 115
1452 23.686292321045766 0.74101974343419219 -2.0475598173652561 215 180 112 0.26504540101332535 13 610 16 416 15 498
343 7.8641623762051847 -0.037637507548125185 7.5273387586995035 231 202 121 0.24627005732873194 9 1437 10 893 13 617 14 727
1153 13.337797708702716 0.43595882089586235 3.8704840628126749 222 186 113 0.11988517269624868 11 1817 12 1594 14 1022 16 843
44 0.76139633714428689 0.28479208087892982 1.273453780696977 159 97 55 0.10474397607169503 9 603 2 999 10 1012 8 440 11 552
1694 1.4345881530961482 -0.21963710571171027 1.7243140503188537 123 64 43 0.030442364374536998 4 424 3 622
1437 0.69705521238298129 -0.46762042185982666 1.7372823496829635 141 83 55 0.38907333546105316 14 54 16 314 15 19 17 4
328 -2.8355453238709729 -2.9982600717217758 18.127538920806245 231 204 123 0.19361798471280189 9 768 10 720 8 549 7 719
1596 68.81843563948209 0.90315556706493838 -25.792782302316208 228 202 136 0.34756431623145606 12 1541 13 846 15 481
487 8.4714706409081941 0.28511891515822119 6.7060929272916425 212 168 91 0.13051524524597671 9 2203 10 2064 2 1970
1182 12.519837370272601 0.41643058248204057 4.2903308354100762 220 186 111 0.30561157507056713 11 2039 12 1864 14 1135 16 975
73 0.73691056910048203 0.36200146719037862 1.3035993221883355 196 145 71 0.18983808536458679 9 653 2 1045 10 1055 12 1100
1723 31.390771226474069 0.96731750450482679 -6.4640427005798884 212 170 102 0.15517932716192165 13 593 14 207 17 247 16 161 15 349
1466 19.59503720451572 -0.20246670095961458 1.6079097648261937 213 176 105 0.30881194993566424 13 845 16 566 15 597
357 8.557821938182391 0.30350229409911433 6.5935234505366012 199 146 77 0.079234221122227513 9 1503 10 966 14 568
1664 1.5154397483478685 0.012057766244199988 0.25996126643134032 0 0 0 1.2124046843707785 5 891 6 1210
1583 84.035631172998976 -5.1616485257383289 -23.514849428655062 196 155 95 0.087404668748793643 13 796 15 263 12 1673
474 -4.3298665214539636 0.16502601643771231 13.566544789328493 224 193 114 0.39899753368050805 9 1744 10 1923 6 1425 5 1199
1169 0.62450106837076502 0.15178370835901728 1.3861577149690396 187 129 78 0.58087364716189693 11 1653 12 1753 13 1074 14 906 16 446
60 0.84957231716708437 0.3179700441478287 1.2494624083179984 173 103 62 0.094798470859605341 9 626 2 574 10 567
1710 0.68646695558637705 -0.23391908889724453 2.1488805390754342 121 62 45 0.20250587857382252 15 289 17 156
1453 21.801120750803243 0.68114119180387234 -0.99256575806238001 214 176 109 0.11613809849263672 13 616 16 420 15 500
344 7.7582100433228511 -0.029768458629335491 7.5769303939229342 212 167 90 0.14025486065050594 9 1716 10 894 14 542
1595 30.767275656285832 -1.9257262720751496 -1.3044984720060258 204 162 98 0.063265189961736135 16 351 15 434
486 7.7424424197928872 0.26635424622456305 7.0481104687609033 216 175 97 0.15962965914756616 9 2143 10 2060 2 1791
1181 0.45306423332647033 -0.16262933183270523 1.9135155321372803 181 117 63 0.20726414467387738 11 1912 12 1856 13 1298 14 1113
72 0.86291565098219125 0.35844031228167639 1.24711426470102 168 100 61 0.027877950138268475 9 652 2 600 10 596
1722 0.48455613278907556 0.76475155390625693 1.6178122558569887 79 50 49 0.060550882694500208 15 859 17 538
1465 22.795340082194105 -0.55967910426745549 0.56188420792320148 216 180 108 0.10424156829799913 13 832 16 553
356 7.0957572425324571 0.28853137132536555 7.3862795238617913 214 174 100 0.12922191147617806 9 1495 10 965 12 465 13 657 14 761
1663 -107.29263573963601 -4.4598401014685081 41.683324551538441 205 149 83 0.28098171994046728 7 1501 4 706 6 1372 8 1391
1151 17.925141386459568 0.6079570276950006 1.2105298108641207 234 206 127 0.24396660795089287 11 1809 12 1584 13 1050 16 722
42 0.74944070249233552 0.28261931848108912 1.2814773721054606 191 130 69 0.18736387409786534 9 599 2 556 11 550 12 566
1692 1.0982766195213445 0.07499068986733462 1.8235290066284509 114 52 37 0.010261102897240231 4 512 3 532
1594 118.2346765734968 -7.9962437734994705 -41.777969059045873 195 160 109 0.49025695984107698 13 788 14 413 15 426 16 341 17 278
485 7.7424424197928872 0.26635424622456305 7.0481104687609033 216 175 97 0.15962965914756616 9 2142 10 2059 2 1790
1180 0.57211208137470992 -0.16089696988500246 1.5133162448585775 185 130 74 0.07621195000041868 11 1909 12 1854 13 1296
1721 115.40819718487724 -7.5264282892662555 -41.682358244748215 194 205 209 0.47850356692292745 14 840 15 558 17 414
1464 22.795340082194105 -0.55967910426745549 0.56188420792320148 216 180 108 0.10424156829799913 13 831 16 552
355 5.7781390189793385 0.2334020204918098 8.1672735128459184 236 209 130 0.30388370966845785 9 1761 10 959 8 1287 11 1375 12 1036 13 920
1662 1.3241026586626194 0.32271005634646388 1.6795708119668789 118 66 43 0.24578692437296326 5 955 4 655 3 695
1592 80.49803122149261 -7.5872304156662134 -20.157625118269607 158 98 57 0.080442786932751642 13 761 14 386 16 317 15 415
483 6.401317182452809 0.06479856342243967 8.1319970095179031 210 165 94 0.019345992599075185 9 2134 10 2043
1178 0.68458871101519536 -0.44533354881602882 1.6254081630449506 113 62 45 0.43760662684831725 11 1728 12 1829 13 1373
69 0.78841376487589365 0.34720272855765655 1.2754439105877797 192 140 85 0.23898713137397617 9 646 2 1038 10 1046 8 465 11 1086 12 1093
1719 0.78531025650224984 0.26929353229858366 2.0354220897298045 116 64 44 0.067840944511061319 15 530 17 322
1462 22.075623647537022 -1.1751313720152909 2.0375441840141666 214 176 104 0.21121111127625122 13 818 16 535 15 568
353 6.0426105192372113 0.19136234867286467 8.1031904892981483 237 209 130 0.19511469207162233 9 1481 10 947 8 1284 12 1022 13 911 14 1051
1660 -113.78029531500226 -5.1561289794469944 46.195966033469759 214 167 92 0.63551526213503062 7 1279 4 604 6 907 8 1202 3 758
1591 0.63958372199843572 -0.51139819433167999 1.681145211553962 144 92 76 0.53251809511468007 13 757 15 413 17 132
482 6.445831999575093 -0.11966933800954166 8.4253313615805681 229 199 119 0.89327262740482638 9 2126 10 2037 12 1860 13 1309
1177 27.64774863990386 -2.785569973741608 1.8133515349637781 217 180 106 0.2216419152223181 11 1996 12 1827 13 1148 14 965 16 785 15 745
68 0.67292421632549915 0.34863720394997932 1.3349750592533327 191 134 73 0.22720835783472537 9 645 2 1040 10 1047 11 599
1718 0.49934804852101639 -0.19030651466369822 2.1527277572390231 155 87 47 0.051269912225436927 15 583 17 293
1659 -119.17792363226313 -5.8983575077581119 48.480380775247184 225 179 98 0.19368122450546882 7 1276 4 601 8 1384 3 755
1590 21.632588458578216 0.67999182813360715 -0.84778725326086057 205 161 94 0.092164572964348823 16 423 15 360
481 7.9739250138974818 -0.11726999113041325 7.5189806009853459 217 174 96 0.090864976473494202 9 2124 10 2032
1176 0.47242394285760442 0.77698912446593482 1.5407140935293393 204 166 91 0.92410933367567782 11 1868 12 1797 13 1117 14 799 16 489
67 0.78660951756926745 0.33974495704302021 1.2749820059405319 167 106 61 0.13112792735977957 9 640 2 592 10 587 11 591 12 598
1717 111.1776885935226 -6.6885678958518895 -39.352683402692662 192 143 89 0.4090584517177292 14 422 15 265 17 283 13 793
1460 0.68022543592385543 -0.37989320876948163 1.7814894490263598 153 97 61 0.21482227632653816 14 838 16 519 15 431
351 6.2954828009763943 0.15289644583744644 8.0359075684369472 209 163 91 0.09380648942500526 9 1088 10 938 13 649 14 755
1658 -120.42196856558623 -7.6452871384417636 71.819341342623503 212 162 102 1.0960407224561615 5 260 8 1386 4 597
1589 28.120148171504947 0.91192141493891488 -4.676339658488768 230 201 126 0.036427284716382041 16 177 15 358
480 -4.9322394645247503 -0.50052601477197289 15.018712193488302 210 169 95 0.29444318303587946 9 1894 10 2028 7 1679 6 1641 5 1323
1175 0.48295838895747045 0.76162236998096333 1.5610643105587858 172 133 90 0.32558822641250984 11 1867 12 1794 13 1251 14 938
66 0.7628153625488332 0.33739420214947946 1.2846455544176016 190 141 85 0.12826417392051087 9 637 2 587 10 585 11 589 12 596
1716 111.29429365538992 -6.6951057532046141 -39.391227495665923 192 143 89 0.47774559529928667 14 421 17 282 13 792
1459 26.794270189861848 -2.7138009448649187 2.1262966602148006 230 201 123 0.10786133594550018 14 661 16 511 15 544
350 -3.9947925921063034 -0.10920306391153434 13.855401703623333 234 205 123 0.094204728476820224 9 456 10 916 5 946
1174 0.96587743664882597 0.7923322688686959 1.2244467156441807 206 165 92 0.99069304848310846 11 1864 12 1790 13 951
65 0.85190870858000922 0.3250255105880524 1.248382649554705 171 99 62 0.087014174326237231 9 633 2 581 10 572 11 581
1715 0.51243963744798604 0.76066196412077036 1.53780564048227 128 90 71 0.29673934035016208 15 653 17 271
1458 17.314216804616837 -2.3127873545814737 6.3083082432463495 198 152 88 0.19009149186875399 13 481 16 501
349 -9.640817998069231 -0.22792678446657047 17.019806543021634 199 151 88 0.017235365778021552 9 451 10 906
1587 33.172057163635323 1.0210426505992303 -7.4706183506580697 212 173 107 0.21820142943914889 16 159 15 347 17 187
478 -9.5505943574457905 -1.5031591953144832 19.042320269717418 213 171 99 0.25221244666564346 9 1868 10 2000 6 1522 5 1248
1173 0.56533459582558365 0.32476757977976611 1.4250090376888764 178 110 64 0.1364763642883885 11 1679 12 1785 13 1099 14 781
64 0.65357723713888805 0.32927466968619223 1.3444735083569053 161 97 56 0.10353037685558819 9 632 2 1033 10 574 11 1081 12 599
1714 0.88272835762843538 0.37776816524477252 2.0380460079214688 143 87 54 0.01535526479981867 15 532 17 265
1457 0.53641259034012756 0.3346488834623188 1.9300530567011527 145 85 48 0.44875278867405255 14 606 16 477 15 392 17 201
348 -6.4928462786001901 -0.17919303059377437 15.298946956397456 235 204 120 0.089956151605869811 9 1037 10 904 8 351 6 1021
1586 24.624919676097072 0.37466839111444916 -1.9077531945217845 209 167 101 0.010029672756504592 16 145 15 335
477 2.0952765653748182 -2.2972967403170381 14.437058101710956 220 185 109 0.20581304388316271 9 1987 10 1984 11 1993
1172 4.9741793246725834 0.43999688653111091 8.2261627223142515 219 186 110 0.17327280961918257 9 2067 12 1778 13 1346
63 0.81520084915462809 0.32034415276683448 1.2575051291794965 171 110 64 0.20022312110321538 9 629 2 579 10 569 11 577
1713 0.68744962976193014 0.35588007619472362 2.0471181171441115 153 94 54 1.3426171543771774 15 644 17 264
1456 9.9710245703883764 0.47696253152972423 5.5626748126036141 205 158 89 0.1762545288898143 11 444 14 575 16 470
347 -3.0992733676315636 -0.12459776536034448 13.419799212971592 222 187 106 0.084699389724455038 9 1044 10 902 7 538 6 1038
1585 42.2410599509316 0.89643157189653666 -11.984198048270759 213 175 112 0.21889327337049269 14 497 16 396 15 331 17 244
476 6.8555931460742752 0.49733745329621715 7.1806076309744356 224 192 115 0.21665260353965121 9 2069 10 1945 13 1233
1171 5.1359241694360769 0.23100748016087572 8.4972911519103 232 202 121 0.36231832665505354 10 1917 12 1763 13 1339
62 0.81520084915462809 0.32034415276683448 1.2575051291794965 171 110 64 0.20022312110321538 9 628 2 578 10 568 11 576
1712 42.380714435804286 0.89953990878544987 -12.037874612636381 196 151 96 0.23345287642163828 15 330 16 395 17 243
1455 11.357844538397158 0.36375608072901611 5.050213400434334 196 144 82 0.0012623522326709589 14 260 16 449
346 -12.767295436857765 -0.36676797908153502 18.921972292446114 221 184 108 0.41218800641880882 9 442 10 899 5 437
1584 36.671983374628176 -0.72260205456557325 -6.4740904209826784 212 173 104 0.029307770170313514 16 374 15 302
475 -4.3298665214539636 0.16502601643771231 13.566544789328493 224 193 114 0.39899753368050805 9 1745 10 1924 6 1426 5 1200
1170 0.59611410243992113 0.15437773488833426 1.4508875947636393 174 124 79 0.68425693562321022 11 1834 12 1754 13 1219 14 1043 16 609
1711 0.94656143518586189 0.0694358905363614 1.9084603789148677 120 54 40 0.051044079854024968 15 174 17 190
1454 11.350520826590845 0.36345971724777382 4.9851529383200983 199 149 82 0.04187627390966582 14 259 16 448
345 7.7169523436860299 0.011464105735285368 7.5281280789670131 211 165 90 0.12497573975245158 9 1452 10 896 13 283
1149 18.291440897252389 0.58365848732797487 0.81680233508951905 216 178 104 0.33408219615012219 11 1941 12 1578 13 875
40 0.81862434908723192 0.27294021737917806 1.2553905037421456 194 147 89 0.17940499267923218 9 595 2 550 10 1010 8 815 7 616 11 539
1690 -91.40746783159446 -0.088342096083827676 14.606755937961356 197 140 78 0.14642025359084379 6 573 7 1318 3 523
1148 18.536712239897028 0.19515310529695787 1.5218809474593293 214 174 102 0.091680038797440813 11 1787 12 1552 13 1033 16 708
39 0.6289680587805242 0.27607573112721606 1.3533307660207132 194 144 89 0.11274662823483246 9 594 2 996 10 1011 11 1059 12 1079 13 693
1689 -169.92764199475602 -8.7859677112651937 31.537522617946525 185 126 72 0.19188155804276852 4 157 7 1256 3 453 6 350
1147 23.077666021441033 0.32635365442835385 -1.0093620596044013 210 166 97 0.082581538250579622 11 1785 12 1548 13 854
38 0.83351637886955465 0.27032053062534056 1.2537971564883597 168 96 59 0.13313841379759048 9 593 2 548 10 531
1688 1.6771074244344861 -0.10033974489905971 2.7399760620693252 212 168 102 0.94604395069493386 4 489 3 296
1146 16.274534607809912 -0.3539499186396895 3.6575588169103908 236 211 134 0.47100074654887281 11 1776 12 1538 14 703
37 0.8032003978647646 0.26968641129676174 1.2591409525008113 170 105 58 0.096531840895708071 9 592 2 547 10 530 8 435 7 614
1687 -112.99305480267252 0.49589300145447179 -11.650731772770557 218 175 107 0.32238753048259816 4 263 6 975 3 294 5 389
1145 7.7269425583304727 -0.52993133701813366 8.4355922069158567 239 213 132 0.1684389168208921 9 1884 12 1537 13 1023
36 0.75045399012613423 0.26645211317816075 1.2799716188804324 190 137 80 0.12325527782856956 9 589 2 546 10 529
1686 -102.07097447095148 -0.84725639269386954 12.889699222681863 219 174 97 0.23354569375989589 5 374 7 980 3 277 6 541
1144 15.401159161230279 -0.78115233909111625 4.8327616193489611 222 185 108 0.10893908764819243 11 1753 12 1524 14 858 16 805
35 0.7599476241451526 0.26281938715573905 1.274608705224302 190 136 79 0.14262317065667451 9 587 2 541 10 526
1685 -115.14751190850727 -1.8854812401371945 10.583663949313962 215 170 95 0.19048261583690837 5 334 7 941 3 250
1142 0.51408120642132493 -0.20798668005360221 1.7835871876183185 179 117 67 0.26118199911505524 11 1543 12 1518 13 1009 14 685 16 93
33 0.7305859588131175 0.25928452435213017 1.2878776007317785 198 145 75 0.15684775442104118 9 584 2 989 10 1001 11 1055 12 547
1683 -123.4856662001194 -3.7509677293337007 23.744101281334778 191 132 74 0.28555247533737271 4 195 5 296 6 440 3 225 7 917
1141 27.540096012376218 -2.0482278635828681 0.64695089442611853 217 180 108 0.43377162794183138 11 1729 12 1498 13 801 16 526
32 0.76906187782047453 0.2530618695869909 1.2711105185118314 170 107 61 0.11833450910982557 9 583 2 533 11 529
1682 -153.5458456467249 -7.4879731987916323 33.340551427588814 219 172 94 0.25424940389146328 6 364 7 867 3 189
1140 1.0037816774758141 -0.47859417212270083 1.445606017278205 226 194 119 0.91034713213887819 11 1887 12 1484
31 0.81178061625734987 0.24583521275036255 1.2593666858267278 194 139 73 0.1346744101591783 9 581 2 529 10 997 8 430 11 525
1681 -38.145005387329093 -0.82926492428759824 30.587107125504708 200 146 81 0.28225209596190221 7 1945 4 1009 8 1647
1139 26.594348311811036 -3.4294321190445056 3.5030923488832486 215 177 103 0.32091346933087056 11 1702 12 1467 13 473
30 0.75753924753973112 0.24542424224597262 1.2773775274965224 168 104 61 0.34982829349281719 9 580 2 984 10 996 8 429 11 1054 12 543
1680 -84.873207059555867 -0.87441030109803963 24.377684398878326 210 155 86 0.42772425600718006 6 1831 4 1006 3 1043
1679 1.709240215130023 -0.0099082634443177532 0.51489724213148114 0 0 0 0.86927332473241314 5 1363 6 1772
1678 -96.168758590480167 -2.4563142494890964 36.814344645100803 223 177 96 0.29851146375992071 6 1812 7 1991 4 976 3 1038
1677 -107.92658304601019 -4.1106019745989375 43.425701898877733 219 173 94 0.93004119072637381 7 1985 4 970 6 1766 8 1713 3 1037
1676 -96.455494557703091 -1.6690485650366602 21.391498931378514 220 176 99 0.46009683122553396 6 1770 7 1990 4 947
1675 -65.216099986539007 -8.6990024462880342 60.073127265999744 187 139 85 0.17152751693933055 8 1632 4 935
1674 -100.76962226340288 -14.814261159810922 84.525569345963874 194 203 208 1.0086422026741895 5 1230 7 1763 4 890 8 1574
1673 1.2798361584364917 0.26721771786386461 1.7752288220033083 154 93 53 0.067587971094982754 5 1205 4 870
1672 1.2879310824197208 0.25221759444599068 1.7500697058248513 122 68 45 0.1951311949559493 5 1204 4 824 3 925
1671 -99.035260319499315 -3.2006346295918706 40.087547418331233 190 129 70 0.15556547921554639 6 1380 7 1672 4 796
1670 -99.035260319499315 -3.2006346295918706 40.087547418331233 190 129 70 0.15556547921554639 6 1379 7 1671 4 795
1667 1.3322215600854952 0.30082229580764486 1.6058389711397116 111 62 43 0.15833099979952056 5 1108 4 750 3 692
1666 1.3322215600854952 0.30082229580764486 1.6058389711397116 111 62 43 0.15833099979952056 5 1107 4 749 3 691
1665 -89.05491755262041 -1.6994679702923603 33.001940848305857 182 116 62 0.094553645425928659 7 1510 4 720 6 1387 3 850
1661 -1.4057144311141132 0.059132861728872166 0.13414980825635403 0 0 0 0.69286785741429391 5 400 7 1676
1579 34.466161890777244 1.0581485965821837 -8.2172612404725331 210 171 108 0.12818385169038315 13 238 15 151 17 185
470 6.9582379706348139 0.24535113734649744 7.5209718014747864 210 163 92 0.11717167635723917 9 2062 10 1916 12 1750 13 1328 14 1233
1578 42.917942079668002 1.3097206372887669 -13.047229706602476 213 175 109 0.0027766490334949112 14 196 15 141
469 6.9582379706348139 0.24535113734649744 7.5209718014747864 210 163 92 0.11717167635723917 9 2061 10 1915 12 1749 13 1327 14 1232
1577 62.648578398133395 1.8174223751723211 -24.280515874100153 228 201 134 0.55465168151596678 12 1551 13 581 14 190 15 128 17 77
468 8.3413482480121743 0.25045229383847833 6.8262581236265412 230 199 115 0.12208024013238865 9 2064 10 1914 14 1044
1576 81.014235846914261 -1.8354702242273844 -27.79959385131427 180 125 74 0.33487073204299356 12 1233 13 148 15 77 17 153
467 5.8906369648966823 0.21182994011709264 8.1540161516942327 209 165 96 0.18929821802005328 9 2058 10 1912 8 1603 12 1756 13 1335
1575 83.693011984486517 -4.8072714610312612 -23.727437397807513 103 67 55 0.51205484944691393 14 97 16 349 15 45 13 504 12 1490
466 5.8906369648966823 0.21182994011709264 8.1540161516942327 209 165 96 0.18929821802005328 9 2057 10 1911 8 1602 12 1755 13 1334
1574 116.41995574358047 -6.8041622146970031 -42.003042471237485 214 223 222 0.38591077223498288 13 104 15 43 17 140
465 5.1691965341268986 0.18948775551422756 8.5721488964228829 215 172 96 0.32759029099361187 9 2054 10 1910 8 1599 12 1873 13 1409
1573 96.495199684206213 -7.6088508259219765 -29.056759230508185 128 75 51 0.48678044552913829 13 78 15 27 12 38
464 7.5442053066606398 0.15925725082726666 7.3762794336726003 240 212 125 0.47625706778356952 9 2053 10 1902 14 1042
1572 -16.765238822243504 -0.85195234431998812 21.835679368357201 208 165 100 0.013864960884498907 6 1214 5 1074
463 -2.402643700137121 -0.036911267317669721 12.933263012476827 218 178 98 0.14634151570031403 9 1729 10 1899 7 1541 6 1559
1571 1.2586548857391531 0.70063375697414809 1.7851940221503981 208 170 93 1.538402061515928 6 1864 5 1455 4 1040
462 -6.6668545135514172 -0.15925555451815498 15.415202656436934 212 171 95 0.009158130252318146 9 1712 10 1891
1570 1.3635111364945618 0.60373535095593422 5.3180658782266832 191 147 83 0.34067309355648523 6 1838 5 1449
461 6.4495874893916358 -0.0073970677860098928 8.2260236027784206 201 149 80 0.32752104767123358 9 2038 10 1885 13 1312 14 1222
1569 -38.40551634896206 -0.99677877003613091 32.478170225523293 205 153 82 0.58485632917251273 7 2079 5 1442 8 1753
460 6.4495874893916358 -0.0073970677860098928 8.2260236027784206 201 149 80 0.32752104767123358 9 2037 10 1884 13 1313 14 1223
1568 0.88140216317472297 -0.32623345098578238 1.307745824751988 194 144 79 1.1804113406320289 6 1826 5 1419 4 965
459 6.5308819564651355 -0.10175937213356097 8.3373142869457766 202 152 84 0.33667071535454374 9 2036 10 1881 12 1723 13 1310 14 1218
1567 0.90929578608225625 0.60706245715573459 1.5648347156452926 174 128 76 1.6059506727531399 7 1827 5 1411
458 6.1111906701989813 -0.21505706503632732 8.7394725649233269 234 206 128 0.43597345108903574 9 1898 10 1873 8 1520 12 1564 13 1189
1566 -99.088989636564833 -4.8272308729582623 58.373892858820355 227 184 111 0.62138537495542523 7 1986 8 1716 5 1403 4 1002
457 -2.785449783028104 -0.44266859248476742 13.777944421626069 212 167 92 0.16347315616633376 9 1691 10 1871 7 1685 6 1537
1565 -101.07143646436414 -5.3286911015699641 62.079750124179384 207 135 78 0.20021866055278187 7 1984 8 1714 5 1402 4 1001
456 -2.785449783028104 -0.44266859248476742 13.777944421626069 212 167 92 0.16347315616633376 9 1690 10 1870 7 1684 6 1536
1564 -1.625543219940953 -0.0087170690070577234 0.1161452537067017 220 179 109 0.7511627020452798 7 1995 5 1362
455 -2.8636413480934735 -0.86962793295462204 14.491622668698472 216 174 101 0.012926903868093807 9 1670 10 1862
1563 -38.491286370305495 -1.3910919023100417 33.779391325964411 213 164 87 0.79920470465838245 9 2194 5 1319 4 949
454 -2.8636413480934735 -0.86962793295462204 14.491622668698472 216 174 101 0.012926903868093807 9 1669 10 1861
1562 -42.720852296266145 -2.5201854060422342 37.856921554732295 213 163 89 0.10861796356637876 8 1513 9 2113 5 1314
453 6.5962648967055948 -0.59769573410554133 9.1545462872844219 219 182 109 0.056416163970235869 9 2020 10 1852 12 1710 13 1299
1561 -4.7347932672277562 -0.10406468654519802 14.244899120322158 192 141 81 0.061285135576023872 7 1525 5 1262
452 6.4395701204293267 -0.59775603223386919 9.2025367072794548 222 187 110 0.25518295085424991 9 1883 10 1851 8 1582 12 1709 13 1174
1560 -6.5945448338918897 -0.15708438666593008 15.291386230180471 205 158 91 0.037835804904033418 6 1401 5 1182
451 6.9802169035761708 -0.98280276574774017 9.6324520134859277 237 210 129 0.053752895703276155 9 2005 10 1833
1559 -82.307886143499189 -11.560943237179529 71.851511010234461 187 130 75 1.0182839370353916 7 1475 8 1370 5 1141 9 1988 4 775
450 8.8914433704534694 -0.89869261753754914 8.4803056559032743 214 174 97 0.36399530401368446 9 2099 10 1832
1558 1.3292397377481255 0.34899245796127942 1.4543941912773304 170 114 66 0.11672019182614217 6 1441 5 1109 3 696
449 8.8914433704534694 -0.89869261753754914 8.4803056559032743 214 174 97 0.36399530401368446 9 2098 10 1831
1557 -9.0172036976723255 -0.22706577096953778 16.728610064236864 205 161 94 0.07367014658720375 6 1239 5 1086
448 7.7680278242200362 -1.0150718552142037 9.2561893736246006 212 171 99 0.15024023016325966 9 1851 10 1829 12 1514 13 1158
1556 -9.0172036976723255 -0.22706577096953778 16.728610064236864 205 161 94 0.07367014658720375 6 1238 5 1085
447 8.8249953410191537 -0.98190720548312393 8.6218890202755976 212 172 97 0.25137203432017091 9 1999 10 1828 2 1674 12 1695 13 1161 14 1098
1555 -16.765238822243347 -0.85195234431998113 21.835679368357038 208 165 100 0.013864960884499176 6 1215 5 1075
446 -2.5770312147850349 -1.8931993260833753 16.11916158700943 213 172 95 0.26400214732256488 9 1633 10 1825 7 1480 6 1493
1553 -1.4872771145490489 0.0027803810641835319 0.21160510162087182 218 179 109 0.27360026375870189 7 1674 5 1066
444 -13.736840393013061 -3.295297887307564 24.442237167558975 199 151 87 0.29103393052754878 9 1307 10 1809 8 930 6 1164
1552 -68.339290813641952 -7.8646792027249264 60.283826257268707 161 93 52 0.60206950641653167 7 1252 8 1181 9 1997 5 1027 4 847
443 -13.736840393013061 -3.295297887307564 24.442237167558975 199 151 87 0.29103393052754878 9 1306 10 1808 8 929 6 1163
1551 -71.395441176110822 -8.6549929321800878 62.777107639684303 184 129 75 0.49976977406247319 7 1485 8 1177 5 1023 9 1995 4 782
442 -7.1177289870156528 -3.034103029249394 20.332324182005024 215 176 101 0.30636724088783929 9 1614 10 1798 7 1462 6 1333
1550 0.70970957711011939 0.61643543897252129 4.8459548482169286 139 108 90 0.32766445362605595 6 1092 5 959 4 764
441 5.1076587034114045 0.47418236143551862 7.9127185998125178 206 167 93 0.31242482293742635 9 1937 10 1725 8 1551
1549 -14.109822991966505 -0.37970244675211906 19.582655469725729 207 160 93 0.0034869391913855525 6 1229 5 923
440 5.2140071319976027 0.2434558865559393 8.4496974961524316 214 173 101 0.21653069733896713 9 1925 10 1714 12 1765 13 1341
1548 -14.109822991966505 -0.37970244675211906 19.582655469725729 207 160 93 0.0034869391913855525 6 1228 5 922
439 5.2893853067612113 0.23388218605777525 8.4252177392491596 239 213 132 0.33398345483471525 9 1760 10 1709 8 1541 12 1762 13 1226
1546 -37.742398909405978 -1.0007814113423559 31.89870484081025 218 176 97 0.24767738364372294 7 1011 5 912 8 694
437 6.3600131808695703 0.19336155184199619 7.9249656331796707 238 211 130 0.38696992572426597 9 1756 10 1701 13 1080 14 1150
1545 -13.722344053285203 -0.75854840369704335 19.987278542805257 211 167 98 0.077548977409136355 6 983 5 909
436 6.3600131808695703 0.19336155184199619 7.9249656331796707 238 211 130 0.38696992572426597 9 1757 10 1700 13 1079 14 1149
1544 -38.843773389811659 -1.2631162372322771 32.71756586166741 224 182 100 0.21275810043920879 7 1003 8 994 9 1687 5 902 4 723
435 8.3493587028124221 0.21547309775424009 6.8536280505211558 219 180 104 0.074214134688936173 9 1926 10 1698 14 908 13 899
1543 -81.835498944102383 -2.9622137087960825 55.921382302109755 134 94 84 1.1352544331131738 7 979 8 985 5 892
434 -11.396921698547315 -0.079111523653869309 17.649001926381462 191 146 85 0.1045772090413522 9 1453 10 1694
1542 -39.999098267684317 -1.8957900498769844 35.769272780054557 225 193 118 0.11469178109956453 7 1306 5 890 4 717
433 -2.7807989748029662 -0.042901529214267035 13.1141357644767 211 162 88 0.092201324503542445 9 1728 10 1680 7 1540 6 1558
1541 -41.746591291535125 -1.9014798293394324 35.336915594646271 205 148 78 0.23225754903778212 8 979 9 1890 5 889 4 716
432 -3.4956609537210763 -0.068351516910605079 13.509743871133699 215 173 97 0.097830473932765255 9 1722 10 1674 7 1535 6 1555
1540 -92.838181127592506 -4.1676119078878466 53.219186364357327 224 180 102 0.30594535884655305 7 1292 8 1400 5 875 7 1505 4 710
431 -4.4121310436656902 -0.091275772754411344 14.05649476479199 206 161 93 0.15256996748432572 9 1720 10 1673 7 1339 6 1412 5 1193
1539 -19.24287170122636 -2.9113435331240183 26.60088555374475 208 167 98 0.0087829300595418415 6 863 5 835
430 -4.4121310436656902 -0.091275772754411344 14.05649476479199 206 161 93 0.15256996748432572 9 1719 10 1672 7 1338 6 1411 5 1192
1538 -67.324806074761867 -7.6996765117206198 59.790463458733782 220 188 120 0.20817209366041567 8 938 5 833
429 -8.377071371218312 -0.21214997501482274 16.31038356475641 194 142 81 0.055003309231882735 9 1436 10 1661 8 733 6 1241 5 1088
1537 -91.249889644212928 -13.717003956675208 78.548248564838644 183 133 83 0.44598033411781862 6 803 7 802 8 575 5 807 9 1280
428 -8.377071371218312 -0.21214997501482274 16.31038356475641 194 142 81 0.055003309231882735 9 1435 10 1660 8 732 6 1240 5 1087
1536 -92.033087600469074 -14.018614279912621 79.232901126426157 207 178 116 0.20422429892958216 6 1158 7 797 8 572 5 804 9 754
427 -8.6142628275686839 -0.21872107500394289 16.48475776799852 196 145 81 0.21977792245670189 9 1433 10 1658 8 1020
1535 1.3401833535574637 0.3473688691398541 1.5970929909393008 113 62 42 0.21937357565084303 6 699 5 754 4 528 3 549
426 -9.4430118894928601 -0.23888214477937222 16.971626037550894 207 163 95 0.029729990131902303 9 1432 10 1657
1534 1.3225773778471743 0.30648542790395694 1.6871946914570302 116 65 44 0.12306826316170844 6 696 5 752 4 654 3 693
425 -10.949908693277733 -0.28769724501130078 17.790230878639793 198 154 88 0.21054693810811009 9 1428 10 1655 8 1014 6 1233
1532 -21.018886773860835 -0.57508459516688182 23.574556475451811 215 179 110 0.069368130343065992 8 706 5 711
423 6.6114981373896722 -0.11803575628019305 8.3000022987820081 236 209 129 0.27530107824779709 9 1901 10 1640 12 1721 13 1308
1531 -6.4407367189202294 -0.52341833686506989 15.856425081003385 225 191 110 0.061661537454962584 7 502 5 708
422 -3.0480564248374429 -0.44740449848978237 13.936471372302552 214 169 93 0.15598209476780206 9 1692 10 1630 6 1535
1530 -37.082473322788459 -0.96298505085381281 32.520443112796528 188 130 71 0.049327410525655528 8 999 5 703 4 726
421 -10.413579612342794 -0.6612842033932077 18.114284383785574 206 162 93 0.030852472398385046 9 1399 10 1625
1528 -35.885534744936578 -1.4230231824412864 32.778631406401757 212 173 105 0.16237313349032947 8 675 5 689 4 497
419 -4.0322213505161706 -0.50821351531870484 14.541461906938094 230 201 122 0.32983862448459811 9 1400 10 1623 6 1220
1527 -82.50592300973986 -2.3877804690798961 45.315324461160024 207 151 82 0.090689651614961148 6 967 7 984 8 987 5 684 4 627
418 -13.892917539202024 -0.76524583356646902 20.167339352405335 195 144 80 0.061642937945500346 9 1395 10 1622
1526 -16.72246701106878 -1.2818720102860095 22.463119384230755 212 172 106 0.029741661752008923 6 516 5 668
417 -12.072354305809466 -0.75531732323156819 19.168174002522285 216 177 104 0.2696254512840644 9 934 10 1617
1525 1.14406575805354 0.026317940839113291 -0.55569792811892149 0 0 0 0.23767464478945027 6 951 7 950
416 7.9530417518879375 -0.32354105602188843 7.9710932746406673 236 208 125 0.22271079584612891 9 1891 10 1614 12 1303 13 1029
1524 -42.246435400171556 -2.5756610031824598 37.969884435420894 229 197 121 1.1443307945382952 7 952 8 1219 5 654 9 2021 4 615
415 -13.348350804273327 -1.1814854127529848 20.535261601609442 205 161 91 0.028588931839163851 9 1380 10 1605
1523 -106.23929020567471 -5.0650615082930122 50.657986346879639 206 154 89 0.20653245948309695 8 961 5 646 6 919 4 446
414 -5.9582422369460311 -0.96655045821521723 16.304399474865882 216 177 104 0.19674106122949703 9 1377 10 1603 7 965 6 1207 5 1053
1522 -106.58410343023836 -6.4194659404435912 64.802534114890591 195 134 88 0.23579865629419372 7 383 8 956 5 641 4 438
413 -3.7953414609497704 -0.89867295702217287 15.078746634386514 216 180 103 0.08163899083567823 9 1375 10 1602 7 1297 6 1376
1521 1.5621233777381545 -0.16662989426648342 1.519401188185654 135 75 50 0.18099417312883262 6 877 5 629 4 166
412 -9.5581058810949298 -1.1085565988914208 18.42519793713263 232 201 118 0.33818129256432466 9 1374 10 1597 8 665 6 949 5 876
1520 -70.225416547672353 -10.886320934727673 65.042142399084383 213 174 111 0.27458790786400039 8 916 5 575
411 -9.5139230765220741 -1.1049785155549636 18.333638233416785 232 201 118 0.017776976817094163 9 1373 10 1596 8 664
1519 -62.112577922565499 -10.23283568132112 59.757173694801075 165 97 51 0.14717274643972006 6 793 8 913 5 569 7 798
410 6.5883825940557035 -1.0969941550157831 9.9850277358203936 221 185 110 0.20151960696956539 9 1852 10 1558 8 1494 11 1251 12 1510 13 1155
1518 1.1138019886336408 -0.45263731018500752 1.4981647141722931 188 135 78 0.63861309421614887 6 763 5 543 4 364
409 1.6847190758599522 -2.8011766596404248 15.403752774311734 219 182 109 0.15037219247016245 9 1581 10 1503 8 1124
1517 1.1546026621367145 0.77950113255445808 1.2771179496597158 162 121 79 0.43401018613890407 6 719 8 516 5 499
408 2.9204903952224393 -2.7702333147205671 14.748688314808422 216 177 102 0.28075405968739642 9 1580 10 1497 8 1337
1516 -25.52981794857627 -0.71849767594550074 26.162783994767516 212 170 103 0.034117616837791104 6 591 5 426 4 508
407 -1.2317232394175688 -3.6104131774350643 18.328391645509903 211 170 100 0.08157250942221822 9 1252 10 1484 8 871
1515 -28.504973923961465 -0.80629840278619513 27.878145461314297 210 168 105 0.190245743487098 6 589 5 418 4 296
406 -1.2317232394175688 -3.6104131774350643 18.328391645509903 211 170 100 0.08157250942221822 9 1251 10 1483 8 870
1514 -28.504973923961465 -0.80629840278619513 27.878145461314297 210 168 105 0.190245743487098 6 588 5 417 4 295
405 5.1191475557882775 0.45268923347321766 8.1452504419575309 229 202 120 0.2542991893104477 9 1778 10 1422 8 1446 12 1421 13 1236
1513 -33.939702591085705 -0.96848053050847849 30.99758429860783 213 174 110 0.052839370896910688 8 314 5 413 4 290
404 7.1935497824356656 0.29082559734192615 7.3199319864810981 231 203 121 0.17899913473192153 9 1496 10 1390 14 919
1512 -37.745691383988067 -0.96001467167941812 31.621138883344962 151 92 58 0.14982794230812568 9 960 5 412 4 504
403 -5.9764482994925547 0.12435396476959337 14.490883100703551 223 192 111 0.44612136462319896 9 1076 10 1385 7 1086 6 652 5 473
1511 -37.993579012062639 -0.99095300486108118 31.647073560062843 214 167 89 0.24504480751905039 8 312 5 410 9 1406 4 502
402 7.3968527430859172 0.23041648067410889 7.323156981418828 237 208 123 0.25546833103067762 9 1762 10 1380 13 648 14 753
1509 -23.06266811245505 -1.0397830901244169 25.411372429128829 210 170 106 0.17290897775446815 6 569 8 300 5 399
400 -4.2200175113458442 -0.038825816711650724 13.864147205784292 218 182 107 0.10579275657807234 9 1056 10 1362 7 1063 6 1042 5 1102
1508 -39.083935712027788 -1.5743005535001964 34.74351108543496 226 192 115 0.95640770962060662 7 998 9 355 5 393 8 990 4 271
399 -4.7516658581977236 -0.075340807271283852 14.24169710862534 232 202 124 0.14629366617938097 9 1052 10 1360 7 539
1507 1.1153071612253822 0.071096481857421651 -0.82122771320672283 0 0 0 0.12164047905958147 6 560 7 996
398 -5.3401408380797015 -0.094334107196080028 14.549127059032573 232 203 124 0.16683064450368809 9 1050 10 1358 7 1051 6 1249 5 1098
1506 1.5819307409349088 0.012510161648467731 0.3331384343282876 185 128 76 0.64075749609480048 6 552 5 379
397 -5.2128577508298442 -0.14508840708556861 14.556542004045729 230 202 120 0.31162354286585831 9 454 10 1342 7 1044 6 1025 5 735
1505 -83.529854207637669 -2.3976685596387659 44.975875880643621 210 153 82 0.16655572437716382 7 474 8 984 5 370 4 486
396 -6.1140982562774884 -0.16830252061119177 15.062657852389835 230 200 118 0.15916817261095995 9 1040 10 1339 6 1022 5 940
1504 -15.660420014810617 -1.2864502329207663 21.950949166236509 229 200 124 0.18404253980676996 8 278 5 346
395 -6.757374187297069 -0.19316138113281253 15.460241384653456 234 205 122 0.21215198471825586 9 1036 10 1333 8 737 6 1020 5 936
1503 -41.133688866536595 -2.4633457602316953 37.317621638224722 214 175 106 0.14351178982288168 8 275 5 325 4 210
394 -5.1400472319857435 -0.2792396862223141 14.751751414234556 203 157 90 0.28514976051168905 9 1016 10 1319 7 527 6 1017
1502 -92.860188977927919 -4.0258544480866476 52.275012443082851 224 180 101 0.26971488616600758 8 659 5 319 4 459
393 -5.141682065574237 -0.27994998902738466 14.756049109771517 203 157 90 0.28916347708713169 9 1015 10 1318 7 526 6 1016 5 931
1501 -22.018686588956772 -1.8877731374558637 26.288958418010012 211 172 107 0.18958058469646391 6 460 8 261 5 292
392 -4.6228324535301262 -0.27786727157123847 14.474194212913954 221 189 113 0.20005916834950249 9 1012 10 1317 6 1018 5 932
1500 -27.860417300241455 -3.704048220344264 32.47347606339801 210 168 103 0.1968985285236852 6 327 7 319 5 191
391 -3.8714652793281594 -0.27848680425229733 14.095316810621414 217 176 102 0.037624781878751096 9 1010 10 1316
1499 -27.860417300241455 -3.704048220344264 32.47347606339801 210 168 103 0.1968985285236852 6 326 7 318 5 190
390 -3.8714652793281594 -0.27848680425229733 14.095316810621414 217 176 102 0.037624781878751096 9 1009 10 1315
1498 0.14860775116403924 -0.16442402890817467 -0.91453532886106292 196 152 106 2.215903347163986 6 834 5 188
389 7.7955111260083303 -0.093251491086542404 7.6807702160902771 230 201 121 0.11180746904447804 9 1704 10 1307 13 866
1497 -80.00106429325831 -10.984890573568981 70.216806809632331 206 161 101 0.17761773278196935 8 132 5 138 9 792 4 68
388 7.7934112832720821 -0.093508242717552689 7.6777269355877298 230 201 121 0.18427219251193447 9 1703 10 1306 13 865 14 884
1496 -24.587151019452602 -4.261545452321009 31.539563317127591 209 169 100 0.21471781236441456 8 148 5 137
387 -3.8688644356178874 -0.39662815946232022 14.280126807107433 218 180 104 0.061712477793703875 9 958 10 1303 7 1019 6 995
1495 -24.587151019452602 -4.261545452321009 31.539563317127591 209 169 100 0.21471781236441456 8 147 5 136
386 -3.8688644356178874 -0.39662815946232022 14.280126807107433 218 180 104 0.061712477793703875 9 957 10 1302 7 1018 6 994
1494 -85.376011606462654 -12.709293940753652 74.959016499436771 202 160 102 0.24534893789498519 6 181 7 221 8 581 5 108
385 -5.1655105954887635 -0.45092105401723381 15.049609731918881 195 143 80 0.06840584404440378 9 948 10 1298 7 509 6 598 5 918
1493 -87.225434163306076 -12.983231881142437 75.683245247031721 181 130 80 0.081037267607332084 6 178 8 112 5 107
384 7.8887590621588419 -0.14703197345735969 7.6628596168673759 235 207 125 0.066656898294420772 9 1699 10 1296
1492 -79.610433985396838 -12.698849533065831 71.580057138919798 131 88 62 0.34072282726444536 8 96 5 99 6 159 9 1274 5 568 4 554
383 -5.0789488465820583 -0.46791574595968699 15.044216387122106 233 205 125 0.20280047660381312 9 946 10 1294 7 1014 6 993 5 917
1491 -95.527525651019317 -14.969943991241911 81.786571692757022 211 195 143 0.13388308816661407 7 192 8 561 5 98 4 354
382 -12.361311223175431 -0.68604922377980204 19.187601716904524 223 186 106 0.30683948710996539 9 937 10 1292 8 307 6 579 5 701
1488 0.6712520141232774 0.7195477271492331 1.7008454237260688 203 165 92 2.735502860721144 14 1366 16 1069 15 894
379 -3.8301370810442492 -0.50304361897665628 14.433137916878261 235 206 124 0.47182190072325708 9 1401 10 1282 7 1008
1487 10.840611872880595 0.63885338915117029 4.8648434946417982 196 151 85 0.30605138905844165 14 1329 16 1042
378 -4.4183754822974262 -0.89121481257500468 15.401785199509755 235 208 127 0.23685023715510556 9 328 10 1267 7 970 6 1208
1486 0.69218635343316481 -0.39622890874302408 1.7035740707593086 97 50 38 1.6704388518441957 14 1294 16 1022 15 831
377 -4.7489312745231018 -0.90014280884916797 15.578012963580877 233 205 125 0.4122391474447859 9 908 10 1266 7 971 6 500
1485 76.45152190265506 -4.7605236918289942 -20.485198388033549 213 173 105 0.87536239791984349 12 2099 13 1478 16 1000 15 832
376 -10.964320248525377 -1.1167888777377475 19.228654863990084 201 155 90 0.10951109639598075 9 910 10 1264 8 279 6 955 5 878
1484 0.68394709696701617 -0.36892875244149193 1.790980192255724 148 94 61 0.36202632219573994 14 1192 16 956 15 756 17 284
375 -11.696941169187324 -1.1380257898544892 19.639618218029412 206 163 94 0.032811802933682639 9 911 10 1263 5 660
1483 2.0946774001369399 0.16550705932539661 3.2264912973601452 0 0 0 0.16914337142466804 7 1814 14 1045
374 6.678773390061421 -0.6284082735037898 9.0987904147396801 237 209 129 0.36902078216572715 9 1877 10 1247
1482 11.39710491526802 0.37284478747532324 5.0446403275876754 206 159 92 0.09986381959402757 14 896 16 852
373 -5.4498634379447033 -1.2452151133018523 16.530453912097119 212 170 99 0.1191477659074015 9 274 10 1239 6 406
1481 11.921374482054665 0.35616015382940236 4.7014724004063186 232 202 120 0.050723476107079599 14 1024 16 847
372 -6.9858795788315131 -1.4383609298941251 17.646806361666076 212 172 100 0.30447149493404635 9 873 10 1226 7 375 5 620
1480 13.354753241527956 0.43641341735453365 3.8716273917111947 213 173 102 0.079766132377729101 12 1593 14 1021 16 842
371 8.8259771322357015 -0.80312989285017056 8.3181452264018585 230 200 121 0.22626396061152487 9 1646 10 1225 13 535
1479 0.54468346302384729 0.094902276830591936 1.7248889211555571 137 82 56 0.16632301762448171 13 1205 16 837
370 5.2834462356256875 -1.0773189119840529 10.653622422025116 213 174 104 0.17530777803941852 9 1330 10 1221 8 1182 11 1254 12 1236 13 1001
1478 12.700997497356123 0.023424577577364627 4.8373889934599728 206 162 92 0.017612757189694066 14 879 16 823
369 6.5479908677516061 -1.0298029949425582 9.8863317675999465 212 172 103 0.10565129016181962 9 841 10 1220 8 936 12 817 13 518
1477 11.450008878504159 -0.053042791337531661 5.678670051747055 218 182 108 0.17695824493278881 11 1590 14 878 16 820
368 7.7498205233682658 -1.1771473807435624 9.4918126471762445 236 209 127 0.067428399234078409 9 1629 10 1206
1476 76.498552500710488 -3.4208802139832941 -23.06144610980013 139 84 54 0.42403988003835918 13 1283 14 977 16 802 12 1985 15 758 17 463
367 -5.5127364936339838 -1.9890235264518596 17.832882561087658 217 181 109 0.20291372503870114 9 837 10 1205 7 840 6 1170
1475 75.570864830716204 -6.2852176345956972 -18.690715020516752 164 94 46 0.2694686508983215 13 1142 14 967 16 789 12 1811 15 747
366 -5.3856315280280054 -2.2285439892511141 18.155093111670222 214 174 102 0.19956922052537474 9 824 10 1191 7 827 6 809
1474 0.57684770457508705 0.31946861004672489 1.9605125866315571 115 65 44 0.47163989344624119 14 928 16 757 15 731 17 324
365 2.0016414954890216 -1.7854071946579069 13.574761171934078 218 182 106 0.20043504466782702 9 1309 10 1190 11 1733
1472 18.542570737375456 0.19462679920149636 1.5219694697464679 214 172 102 0.052173926392746262 13 1034 16 709 15 707
363 -4.6534697382755965 -2.6770898576855098 18.540695190204158 213 173 97 0.087504743183716746 9 806 10 1161 7 185
1471 83.757592504085409 -6.0931259705420393 -23.187192682878997 172 102 51 0.2272321365855603 12 1818 14 837 16 673 15 662
362 -11.170235560708599 -3.1737194954064218 22.756114702242687 206 160 91 0.21093538864883979 9 808 10 1158 8 927 7 814 6 794 5 792
1470 17.878736838591713 0.6006638974489743 1.2149264813606868 234 206 131 0.22382937425842411 13 884 16 593 15 626
361 -8.6695609289702169 -3.1550338664115545 21.445904147106333 232 201 118 0.092545104206422049 9 142 10 1150 6 117
1469 19.290887058287385 0.60774175702076205 0.48492232596115381 216 178 104 0.073591040678552946 13 873 16 588 15 618
360 -13.108427160833962 -3.9606227096013167 25.132332335173448 203 159 91 0.19561840064588704 9 788 10 1135 8 107 7 181 5 522
1468 19.841696933815989 0.23333472680386985 0.78029395381083488 217 178 105 0.082785013492264567 13 856 16 573 15 607
359 -1.3993267909519254 -3.5965486176270414 18.321942688894687 214 173 103 0.070377768958146666 9 1255 10 1107 8 874
1467 21.417965311150027 0.28059992410686918 -0.085821770641598877 216 177 106 0.11261250464566043 13 855 16 570 15 606
358 -1.3993267909519254 -3.5965486176270414 18.321942688894687 214 173 103 0.070377768958146666 9 1254 10 1106 8 873
1463 22.075623647537022 -1.1751313720152909 2.0375441840141666 214 176 104 0.21121111127625122 13 819 16 536 15 569
354 6.5800170732056866 0.20742767704062706 7.8029247151923453 239 212 129 0.39120919991627973 9 1485 10 949 12 447 13 653 14 1048 12 1602
1451 23.686292321045766 0.74101974343419219 -2.0475598173652561 215 180 112 0.26504540101332535 13 609 16 415 15 497
342 7.4193730714731796 -0.10602171067221793 7.8881342889111732 234 205 125 0.096953420235151327 9 1019 10 884 12 372 13 601 14 721
1449 11.796694937309052 0.0032617241516519745 5.3905814192700063 195 146 85 0.017702272455473393 14 202 16 409
340 8.0044284574737663 -0.25024906835213945 7.8147122358570726 234 206 124 0.20368784025745379 9 1397 10 865 13 579 14 708
