# 3D point list with one line of data per point:
#   POINT3D_ID, X, Y, Z, R, G, B, ERROR, TRACK[] as (IMAGE_ID, POINT2D_IDX)
# Number of points: 377, mean track length: 4.6998309060164729
13192 -1.3625185251268341 -0.14325908133989987 6.1022921223370581 115 102 125 0.34134698604027086 8 7013 9 6989 10 9837 11 12633 2 9401 3 9324
13191 1.6998548650336311 -0.20300455902167444 5.2871732871978105 114 56 72 0.45860197741616598 8 3029 9 6987 10 6282 11 6607 2 2977 3 3037
13190 -1.4729516414196031 -0.14789129253567396 6.1196397865247398 64 49 63 0.22382273307850642 7 7800 9 6984 10 9826 11 9983 2 9384 3 11067
13189 1.5733901274099089 -0.23579914246847253 5.3868808720298151 92 59 78 0.12264442294607077 8 2995 9 6962 10 6223
13188 3.4306882178844846 -0.28466678524896716 5.2958291687341204 128 107 126 0.38003508179733303 8 9771 9 6957 10 9888 11 6582
13187 2.2523241081514125 -0.25841335823578732 5.1486123103123029 66 22 26 0.5550233021633203 8 6931 9 6952 10 9862
13186 -1.3341208934207414 -0.19833220056797879 6.0946621511987358 64 51 61 0.18141303616981258 8 6967 9 6942 10 9778 11 9922
13185 -1.4896127669491326 -0.21072253407954064 6.1185862001422597 130 116 131 0.37496761259480199 8 6958 9 6930 10 12611 11 12583 2 9349 3 9246
13184 0.16156858777332053 -0.26355985635377094 5.6342118405444417 53 28 35 0.28726418866239978 8 6911 9 6899 10 12618 11 12608
13183 -2.2734968947409091 -0.21344176092507827 6.2429019243922292 85 80 102 0.98282758975722195 8 6950 9 6896 4 7854 1 6312
13182 -0.078438086555278813 -0.26654692872891017 5.6539442640535684 146 88 102 0.39003358067095745 7 11520 9 6887 10 12614
13181 2.0631464985993477 -0.34239906027021727 5.2799516547564149 126 74 81 0.30784517097034264 8 6859 9 6866 10 9777 11 9959
13180 2.0631464985993477 -0.34239906027021727 5.2799516547564149 126 74 81 0.30784517097034264 8 6858 9 6865 10 9776 11 9958
13179 -1.0233600869471688 -0.29804750949275494 6.0639759152728407 110 102 117 0.1835986766208681 8 6880 9 6844 10 12568 11 12543
13178 -1.0232254799936795 -0.29801559059161198 6.0647412172710577 110 102 117 0.17385986328911077 8 6879 9 6843 10 12567 11 12542 2 9292 3 9195
13177 -1.0667631561848785 -0.31567646455157172 6.0649432611493825 60 44 56 0.58402983922379792 8 6872 9 6834 10 9654 11 9775 2 6398
13176 2.0456171683494082 -0.39124125527375714 5.282473658501651 130 79 88 0.18803869807579227 8 6799 9 6828 10 9742 11 6385 2 2748
13175 3.0392418187007788 -0.43439801452493387 5.3783117130057363 83 65 84 0.30944580175124575 8 6783 9 6819 10 6083
13174 -1.3884244357595719 -0.32375668581148082 6.1130783011430294 112 98 115 0.4210414409151072 7 7610 9 6816 11 12506 3 9138 2 9225
13173 -1.6295585504735133 -0.31959042793218984 6.1486758212272514 101 79 92 0.50823933102076946 7 7613 8 6868 9 6812 10 9618 11 12499 2 9216 3 9118
13172 0.27309427428503497 -0.35998566164973972 5.4635763003712468 48 22 30 0.1339638951032921 8 6813 9 6806 10 9661
13171 -1.8766864334633717 -0.32322351663747817 6.2041705581207669 88 73 87 0.21768754225908413 8 2880 9 6800 10 12514
13170 0.25407819389793557 -0.36690638863045361 5.4664283439477002 130 74 87 0.1392258900680062 8 6803 9 6792 10 9649
13169 -1.9309742846578224 -0.33099882937652891 6.2146059355485406 108 102 124 0.21941438185697737 8 2868 9 6788 11 12474
13168 -1.0705884556634686 -0.36316070094743669 6.0602399055888094 129 108 125 0.28324961901451717 8 6825 9 6784 10 9602 11 9716 2 9222
13167 1.1746620411355781 -0.41080387703664434 5.3102618677155009 96 58 73 0.32068157570009287 8 2775 9 6777 10 9652
13166 1.3757702247408503 -0.42957481344934156 5.2750232395615315 92 51 69 0.35376671918453301 7 11349 9 6763 10 9644
13165 0.66166293333611503 -0.45273508967496728 5.392111687365662 156 138 108 0.074340264904097231 8 6743 9 6731 10 12505
13164 1.7233105760310348 -0.50783911695662132 5.3758631816964133 79 47 60 0.1225444774962426 8 6713 9 6721 10 9597 11 9763
13163 2.0239196066978669 -0.52528516523505264 5.295338915087707 131 81 92 0.42222048154538955 8 6702 9 6712 10 9589 11 6234 2 2591 3 2694
13162 3.332698998747686 -0.61109886805039915 5.3267759897044593 124 112 132 0.23133327598826592 8 6645 9 6691 10 5936 11 2392
13161 -0.34199977354506311 -0.51373847440369347 5.6976194211843394 142 86 96 0.19159632368090448 8 6697 9 6656 10 9491 11 9606
13160 4.0350364801985581 -0.67083395323964345 5.1972751618893867 110 80 103 0.30834417900181277 7 11144 9 6654 10 5919
13159 0.47571127936530927 -0.55425063218423076 5.4332259547762991 50 22 32 0.1387437281694883 8 6651 9 6631
13158 3.4511645689681183 -0.72267727108528534 5.3094057374799082 91 72 91 0.091335011790857568 8 6563 9 6601 10 9513 11 6149
13157 -1.1421225665643178 -0.58015665277362027 6.0822800677792772 123 103 114 0.20345708482417513 8 6644 9 6595 10 12394 11 12379 2 9059 3 5950
13156 0.63812042338165154 -0.61261417130185336 5.4153682804618839 100 57 64 0.95713943363202458 8 6599 9 6593 11 9598 10 5730
13155 -1.0400859034188468 -0.62571351191926561 6.0705535963466248 139 115 127 0.44229695025937171 8 2540 9 6562 10 9385 11 9487 2 6059 3 1927
13154 2.8446759891053142 -0.77336229700767289 5.4319138091549268 81 69 89 0.2746884410318306 8 2388 9 6561 10 9461 11 6038
13153 -1.8978747013017774 -0.61271347267280396 6.2143940478355306 125 111 128 0.45912036909031073 8 6612 9 6549 10 12360 11 12328 2 10957 3 10792
13152 -1.7654444978722394 -0.63643447691713395 6.1899083445341638 125 106 126 0.16425109299144594 8 2514 9 6527 10 9326 11 12320 2 8952 3 8819
13151 -2.0755230842403489 -0.62841091387739423 6.2417001668698244 96 74 97 0.24798487778416622 8 6596 9 6523 10 12344 2 10934 3 10751
13150 1.9233031091370254 -0.81788178920195742 5.322534168679244 99 60 65 0.16189358783631136 8 6450 9 6477 10 5636 11 5921
13149 -0.6403820473643409 -0.76235306090268573 6.0092527682322663 128 105 125 0.2315370438251948 8 6504 9 6467 11 12324
13148 -0.69694377078787828 -0.76651185649662601 6.0337692865943202 125 117 138 0.21477942387043086 8 2370 9 6463 10 5465 11 5636
13146 -0.58821701039341323 -0.79213637076402221 5.9992623978271569 72 57 76 0.17829122518382348 8 2340 9 6446 11 9376
13145 -0.79890621304012766 -0.78255718964254872 6.0395900055147385 70 51 70 0.18680350367343404 8 6485 9 6445 10 9255 11 9350 2 5869
13144 -1.6865291887669323 -0.75096456255032584 6.1937735460335999 71 61 89 0.82457067303040876 8 2377 9 6444 10 9201 11 12237 2 8847 3 8733
13143 -1.2081918320232392 -0.78994444714022072 6.1187815008047108 52 39 55 0.20670052526911908 8 2334 9 6426 10 9204 11 9272 2 8884 3 8782
13142 2.6393555167265763 -0.95084360387248712 5.4589525060964181 89 63 84 0.37750126371291048 8 6376 9 6425 10 9347 11 5866
13141 -1.1606788030903441 -0.79678563382681233 6.1074139346401815 64 46 58 0.14486675439100707 8 6470 9 6421 11 12261
13140 -2.1765957576896895 -0.75559816133758595 6.2757133106155152 56 50 63 0.17533590065459262 8 6500 9 6418 10 12243
13139 0.055379557227887739 -0.83842161937912785 5.6747594422433298 119 71 80 0.67565959134159881 8 2246 9 6400 10 9247 11 9396 2 1919 3 1878
13138 3.8654652381904597 -1.0280697624953901 5.2519337415929055 97 69 86 0.23460558661450073 8 6322 9 6395 10 5586 4 13923 11 5908 1 11405
13137 3.8661219764919093 -1.0281262810211389 5.252634329414712 97 69 86 0.13219643149177127 8 6321 9 6394 10 5585 4 13922 11 5907
13136 1.7141263663835109 -0.90571419077214643 5.3615187966403308 133 92 106 0.10547535980089688 8 6381 9 6393 10 9311
13135 -0.28070791894828862 -0.82221389526891575 5.675007274866763 59 24 28 0.39934117085992088 8 6433 9 6385 10 9223
13134 -1.5963034606455653 -0.8162794026898933 6.1767924293049692 106 83 111 0.57559954824627058 8 2291 9 6362 10 9138 11 9176 2 5606 3 5416
13133 -1.9375221889631706 -0.81896463811844611 6.230132614451434 79 62 92 0.18888772903195095 8 2283 9 6340 11 12155
13132 -1.9375221889631706 -0.81896463811844611 6.230132614451434 79 62 92 0.18888772903195095 8 2282 9 6339 11 12154
13131 0.43464243501149413 -0.88532775015266629 5.4179335623263922 111 53 67 0.21814698015592146 8 6362 9 6326 10 9195
13130 0.40346048007585789 -0.88874889311573679 5.4623134100177761 114 61 75 0.98962228485894088 8 6361 11 1718
13129 1.7483461802990961 -0.97563758040439408 5.3395118682431759 83 44 56 0.97289048709047721 8 6314 9 6310 10 12303 11 12341
13128 -1.5364641070517751 -0.86763420455557272 6.1661940752934443 136 120 146 0.36206561549812427 8 2224 9 6306 10 9086 11 9112 2 8779 3 8651
13127 3.3099725837322618 -1.0873144169798956 5.3511843127987282 78 68 92 0.38150682352852128 7 13954 9 6305 10 9286 11 5808 2 2151
13126 0.81268715138312819 -0.94805212142936313 5.4753189000907847 72 33 37 2.2212050211861869 8 6331 10 9170 2 5959
13125 -1.1880144469954967 -0.91826626147535551 6.1149399923857795 95 65 74 0.13868576154491913 8 6375 9 6279 11 12162
13124 2.9319065813734611 -1.1355418871976806 5.4176227252890357 108 86 105 0.19103229540384653 8 6240 9 6264 10 9202 11 5717
13123 -0.89841357783537068 -0.97985535561007153 6.0633490467698845 113 87 100 0.51491933665399225 8 6326 9 6251 10 9020 11 12149 2 8788 3 8681
13122 2.4679356448112366 -1.1413224028763027 5.5020342571552927 100 87 113 0.10271635108058297 8 6232 9 6250 10 5319 11 5633
13121 -0.60737469900618657 -1.0010104028563389 6.0277518631894074 64 38 53 0.15563334020363676 8 2098 9 6244 10 9031
13120 -0.60737469900618657 -1.0010104028563389 6.0277518631894074 64 38 53 0.15563334020363676 8 2097 9 6243 10 9030
13119 0.084110953142896683 -1.0025385861784595 5.670013901915504 108 75 91 0.52650030189628116 8 2046 9 6240 10 9066
13118 1.7143979948954362 -1.0969504398281014 5.3816075427628096 82 40 50 0.42162540994896786 8 1963 9 6228 10 9120 11 5499
13117 -1.1999863304722307 -1.0062359304883077 6.1360260187862918 131 117 132 0.44820724818642732 8 2071 9 6220 10 8969 11 12111 2 5441
13116 0.60896777152822734 -1.0444297145767412 5.4371722741913224 59 26 37 0.20641524000904818 8 6249 9 6215 10 9059
13115 -1.9235191294233909 -0.97507528365850105 6.22879813740707 125 101 126 0.37152319026351005 8 2112 9 6214 10 8917 11 12050 2 8619 3 8451
13114 3.5495079926002489 -1.2646047056532763 5.3243252584696323 70 51 68 0.22897699099484631 6 9738 9 6203 10 9145 11 5638
13113 3.5495079926002489 -1.2646047056532763 5.3243252584696323 70 51 68 0.22897699099484631 6 9737 9 6202 10 9144 11 5637
13112 -0.74095211576536635 -1.0551317226918315 6.0445973137545375 134 110 123 0.23742404047192248 8 2017 9 6201 10 8960 11 9059 2 5490
13111 2.1479177293484075 -1.213309217808108 5.5728187227543415 140 121 141 0.35540972637004692 8 6192 9 6189 4 10988
13110 1.0905009605088356 -1.1036740171243096 5.3523243700481071 60 31 42 0.25790418540340476 7 10817 8 9348 9 6182 10 9037
13109 -2.011969245389202 -1.0076017487752178 6.2455961126010724 115 102 120 0.29894762612990838 8 6296 9 6176 10 12076 11 12007
13108 -1.073063480030463 -1.0639804664943768 6.1045476100438592 125 102 115 0.46977381477127494 8 6268 9 6168 10 12104 11 12096 2 8703 3 8590
13107 -1.3914902915140221 -1.047702688375485 6.1475635198560887 102 77 90 0.30607997727710518 8 6279 9 6167 10 8902 11 12069 10 12090
13106 0.88682620863977102 -1.1270838641685137 5.3898613368352306 121 71 78 0.14569604211993564 8 6199 9 6139 10 8999 11 9170
13105 -1.3142482436520408 -1.0767224007029583 6.1465172859985344 126 102 121 0.99371538682439353 7 6783 9 6131 10 8888 11 12052 3 5166
13104 1.6613908611913892 -1.20126390994803 5.4101157114414935 71 35 39 0.58053584705125161 7 6544 9 6126 10 9015
13103 2.5016683661432264 -1.3000739709969482 5.5047660083875281 111 77 95 0.34620682277292397 8 6120 9 6114 10 9026 4 10893 11 5412 1 8846
13102 1.6877770515755934 -1.2154437310227315 5.3869881864463913 107 61 67 0.29513064235341807 8 6152 9 6113 10 9004
13101 3.8349762827566258 -1.3731982452432288 5.2775573891858247 95 75 102 0.28525150992622844 8 6067 9 6110 10 9073 11 5511
13100 -1.3074218718888728 -1.1106199608770508 6.142206690568746 127 103 117 0.73212261972160098 8 1955 9 6104 10 8863 11 12028 2 8622 3 8498
13099 -1.5113564774886765 -1.105294777789948 6.1798075763446541 97 76 95 0.1555784742509618 8 1958 9 6097 10 8853
13098 -1.7976367376635871 -1.0888316281993042 6.2194749127585505 80 69 98 0.45649422963832259 8 1971 9 6095 10 8832 11 11970 3 10513
13097 -1.936523944211018 -1.0905274930811109 6.2316533083521719 126 115 139 0.84457892293868098 7 2191 9 6086 11 11940
13096 1.6500246531135863 -1.2493258702239354 5.384720476657316 109 66 75 0.11402889705825593 8 1776 9 6080 10 5087
13095 3.8073101140360412 -1.4099205126941332 5.2892787042577263 152 132 153 0.20631773211771631 8 6028 9 6078 10 5169
13094 -2.0287142852167133 -1.1016514208626607 6.2538760171627041 88 70 93 0.8794284111290388 8 6231 9 6070 10 8782 11 11920 2 8484 3 8246
13093 -1.9411134942403474 -1.1198415467014158 6.2470559641268482 119 104 125 0.87367735254569567 8 6222 9 6065 10 8775 11 8765 2 8492 3 8258
13092 2.6465619470196238 -1.3712449090598962 5.4750083949184836 112 83 106 0.20483510922746151 8 9261 9 6062 10 8976
13091 -0.6080468702066959 -1.1996308292016042 6.0386185354310165 124 110 138 0.34507845099545897 8 1898 9 6059 10 8858
13090 -1.2121714484146406 -1.1830468269161647 6.1307403119285384 104 77 97 0.36800499856678498 8 6189 9 6042 10 8801
13089 -2.0541211594225652 -1.1488676001211404 6.2615473365880403 90 78 98 0.15472422753079362 8 1926 9 6022 10 8721 11 11875
13088 -1.2109439690385 -1.210439012321803 6.1419165061509879 130 127 147 0.48859628432805363 7 2075 9 6016 10 4803 11 4777 2 910
13087 -1.1610711792706931 -1.2142522833442742 6.1332084203487405 119 105 129 0.41951594755981281 8 6165 9 6015 10 8770 11 8812
13086 2.5632004789165768 -1.4420610511716412 5.5051743012527776 124 95 117 0.15470509528843701 8 9234 9 5992 10 8914
13085 -1.2262554157877246 -1.2406159836085253 6.1368751306614628 93 67 76 0.59543874460766588 8 6139 9 5977 10 8733 11 8776 2 5089 3 8399
13084 -2.1942629047299067 -1.1953147439220246 6.3020953812996545 132 122 138 0.39470463171601949 8 6173 9 5970 10 11913
13083 3.93646526343429 -1.5437660856939066 5.2618517692801738 137 125 147 0.43551448987605057 8 5921 9 5969 10 8943 4 13663 11 5350 1 11180
13082 3.5151029715294091 -1.5209784001143642 5.3276484497103995 87 73 85 0.18883316760974819 8 5942 9 5967 10 8928
13081 3.639725810837942 -1.5368971759923502 5.301021390824439 133 115 131 0.091282134723892558 8 5919 9 5957 10 8921
13080 3.7873886292531318 -1.5507076448215424 5.2874707362484594 134 116 132 0.39878813503750177 6 9541 9 5955 4 13670 11 9187 1 11191
13079 3.8891228043201513 -1.5616947574324802 5.2641399767299095 97 72 102 0.57463434639403987 7 10426 9 5950 10 8923 4 10530
13078 3.8896402697342674 -1.5618304269772731 5.2650539383568109 97 72 102 0.47400718129442332 7 10425 9 5949 10 8922 4 10529 11 5328 1 4768
13077 2.9013147593155302 -1.5338154868955853 5.4621291266717336 63 51 66 0.60769874782735389 7 10504 9 5936 10 8882 4 10670 11 5238 1 8661 2 1603
13076 -1.6981758366937094 -1.2588727255833512 6.21358336778008 76 64 89 1.2038885650781461 8 1773 9 5933 10 8635 11 11835 2 8400 3 8206
13075 -0.77954434066253997 -1.3306025109312869 6.0671598010473806 137 109 127 0.44270122606515683 8 1682 9 5915 10 8681 11 8775 3 639 2 872
13074 -1.1708127820455669 -1.304656999315732 6.1260391066227875 129 106 121 0.62313080184689718 8 1709 9 5914 10 8657 11 8724 2 4999 3 4868
13073 -0.024807263372699669 -1.3252688841052709 5.5990212018707544 64 30 33 1.2084406424439964 8 6012 9 5891 10 8723 11 4894
13072 -1.3776222165898919 -1.3134030275097603 6.159341544191002 135 109 131 0.27402491322320527 8 6069 9 5887 10 11889 11 11844 2 8427 3 8252
13071 -0.629929255213456 -1.3791866413870049 6.0439460167393202 115 83 99 0.2767212739256939 7 10734 9 5872 10 8645
13070 -1.2049393281724174 -1.3610362168314472 6.1382280027483942 127 106 122 0.17389037131059462 8 1629 9 5862 10 8596
13069 -1.2049727101476511 -1.3604054059119479 6.1354995477330547 127 106 122 0.257197376800471 8 1628 9 5861 10 8595 11 8658
13068 -1.5062233259071527 -1.3485954936752538 6.1865664190320606 125 106 126 0.28820126052447886 8 6030 9 5847 10 8549 11 8599 11 11782 2 4774 3 4631
13067 2.7063199508544122 -1.6215654532753456 5.485367954723257 120 89 97 0.16969746355417326 6 6268 9 5828 10 8794
13066 -1.7653166352242373 -1.3514784575656715 6.2281327971492484 129 114 137 0.30927231831588287 8 6026 9 5822 10 8514 11 8514 2 4664
13065 2.4606627039386884 -1.6176652854474121 5.5317939317481875 140 122 138 0.21471813966339295 8 5830 9 5819 10 8777
13064 -0.47759609813511217 -1.5056792387363553 6.0222092584977807 111 81 94 0.56199030187953081 8 1462 9 5758 10 11832 11 8659 3 500 2 4964
13063 -0.64859884897475961 -1.5036604341697297 6.0530466438231354 139 120 139 0.37402148937210988 8 5903 9 5751 10 8507 11 4432
13062 -1.8561424771385755 -1.4314313408908488 6.2565858554665255 126 116 143 0.37616705322379645 7 10730 9 5748 10 11753
13061 1.3194348839031111 -1.5331017596470553 5.1776736477892804 54 29 38 0.23236275246712468 8 1278 9 5720 10 11904
13060 1.3849136553194246 -1.5436877452973099 5.1674564724631225 151 110 128 0.29525711715615038 8 5757 9 5711 10 8624
13059 3.804024181205746 -1.828929550643249 5.3266690666942784 127 118 135 0.36210244121362373 8 5632 9 5709 10 8732
13058 -1.6557589005789832 -1.4718670775558165 6.2213377026793202 125 109 120 0.29068912720308493 6 2221 9 5702 10 8390 10 11737 11 11652 2 8207
13057 -2.1276601662822583 -1.4581047011965325 6.3085047832371153 132 114 131 0.07987735426661903 8 1507 9 5674 10 8335
13056 3.9512497567481724 -1.8625531931196333 5.2784530756326866 124 95 118 0.23490295730762467 8 5602 9 5662 10 4714 11 1262
13055 -1.3174106810350408 -1.5364410830977451 6.1662084429957371 93 62 77 0.13924729975508732 8 1398 9 5638 10 8369 11 8405 2 4586
13054 -1.3174106810350408 -1.5364410830977451 6.1662084429957371 93 62 77 0.13924729975508732 8 1397 9 5637 10 8368 11 8404 2 4585
13053 2.3378261705812311 -1.8078987680821359 5.551881389706911 137 117 129 0.45236657683236975 8 8975 9 5605 10 8584
13052 -1.8572793466460999 -1.5251473288995545 6.2459584545133175 159 139 151 0.52688002367869236 8 1402 9 5602 10 11671 11 11580
13051 0.50612159354705832 -1.5745068919735157 5.313134833978812 49 26 33 0.49591606561449458 8 5702 9 5592 10 8464
13050 -0.78304021716706418 -1.6296414641621861 6.0873939426520893 61 45 56 0.47078263487929023 8 5778 9 5581 10 8351 11 8433
13049 -1.447062985517803 -1.6079290507718125 6.1886353153502949 106 79 96 0.32095879173905223 8 5795 9 5557 11 11599
13048 3.1318740012256625 -1.9626107865753986 5.4473611778041775 83 71 88 0.39525379161984758 8 5527 9 5533 10 4493
13047 -0.91590211844599045 -1.6819703865717048 6.1052031368149002 138 114 131 0.52767914750217115 7 1450 8 5712 9 5526 10 8276 11 8347
13046 -1.1883457109950653 -1.6693123413300066 6.1475453260554822 123 99 112 0.3765717775975132 8 5720 9 5518 10 8240 11 8275
13045 -1.501554173729948 -1.6554295260048817 6.2137965845080485 73 49 58 0.059221459644376126 8 1230 9 5515 10 8205 11 8208
13044 -0.42436585577955038 -1.7388498208862206 6.0346981662420411 79 55 68 0.23630783431910518 8 5670 9 5509 10 11666 9 8928 11 11660 2 8293 3 8184
13043 -0.81342981908123935 -1.7117126088164156 6.0883901633179747 130 109 127 0.40850099536278117 8 1173 9 5505 10 8260 11 8342
13042 -1.8987098443516432 -1.6388787120668773 6.2760832335766814 73 52 67 0.24814112000490798 8 1250 9 5501 10 11583
13041 -1.5016845330353052 -1.6705062401890902 6.201512827253544 114 86 94 0.14112168758940238 8 5714 9 5494 10 11599
13040 -0.56767980661269479 -1.7438062308292714 6.0644757474600457 58 48 73 0.21451459388925859 8 5659 9 5493 10 8273 11 8374
13039 2.5335743400674429 -1.9646561721844411 5.531802683944461 116 91 113 0.24585883204561265 5 10379 9 5489 10 8461 1 8435
13038 -1.586648718678904 -1.6738052599875188 6.2181268774100236 121 98 109 0.23179626014553542 8 5711 9 5479 10 11589
13037 -1.8270044001472103 -1.6818209389106613 6.2572523757396556 98 70 82 0.31922839551590793 8 1188 9 5453 10 8108
13036 3.6698931462819009 -2.0960739447123755 5.3419970493380156 116 92 105 0.2834356053541493 8 8841 9 5444 10 8473 11 4774
13035 3.0258264668469401 -2.0579168812501805 5.4560113240280712 129 110 132 0.67785881706770856 5 13485 9 5438 10 8435 4 13506
13034 -0.81132126048578534 -1.7953400509655355 6.0947332621114576 144 115 126 0.24981678764629031 8 1036 9 5397 10 8158 11 8237
13033 2.739985022588233 -2.0674806015776221 5.5156620092213382 139 117 132 0.3341654339485895 8 5438 9 5392 10 8401
13032 -1.3845292219180398 -1.7734759862788627 6.2034175380084928 65 55 78 0.29797971110103066 8 1060 9 5372 10 11534
13031 -1.3845292219180398 -1.7734759862788627 6.2034175380084928 65 55 78 0.29797971110103066 8 1059 9 5371 10 11533
13030 -1.3823365146778341 -1.7964555194117267 6.198742009029778 74 62 82 0.58213857008773473 8 1024 9 5332 10 11520
13029 -1.3823365146778341 -1.7964555194117267 6.198742009029778 74 62 82 0.58213857008773473 8 1023 9 5331 10 11519
13028 2.388377242006559 -2.0849552197448595 5.56828031609703 134 117 136 0.39142726034936431 8 5410 9 5324 10 8345 11 4473
13027 -1.2839807315235015 -1.8276900270611423 6.1870725246804446 81 67 85 0.39498234229770585 8 981 9 5299 10 11504
13026 -0.58222932905788394 -1.8858146595204215 6.0765570194499672 139 121 137 0.77968103847080894 8 914 9 5297 10 8101
13025 3.4086979785281573 -2.2018845572777779 5.4031448481630235 138 116 132 0.20995207389925744 7 9897 9 5293 10 4269
13024 2.9304045201492892 -2.1691048393492203 5.475617611113706 144 124 148 0.46082786856333618 8 5346 9 5288 4 10181 1 8204
13023 2.8232315782021433 -2.1620441431485133 5.500847647176256 143 130 152 0.10737991555672066 5 13458 9 5287 10 4203
13022 0.33473033686032355 -1.8351236658799066 5.3979878301055066 81 48 63 0.21380802510475308 8 800 9 5278 10 8164
13021 0.3346713843189415 -1.8335023400493715 5.3970659857860124 81 48 63 0.94918420428449868 8 799 9 5277 10 8163 2 4708
13020 4.0163810305612442 -2.3210382745778193 5.2929940195081242 128 113 142 0.41112208121853511 8 5230 9 5235 10 8328 11 4600
13019 0.72123311361195974 -1.9190984654765237 5.297455673140699 88 48 52 0.10698402629558891 8 5393 9 5217 10 8116 11 4058
13018 3.8833607671892199 -2.3314499193781888 5.3225049387930277 87 77 101 0.13645907528490531 8 5215 9 5210 10 4175 11 775
13017 3.1812825771531044 -2.2774277318611844 5.4534819780351684 132 122 147 0.24139973641264209 8 5262 9 5208 10 4106
13016 0.36178956749781982 -1.9171006081953479 5.3586349699256512 87 46 49 0.095986550123547468 8 5386 9 5178 10 8064
13015 2.7302053218035227 -2.3059188709091072 5.5328159270208577 109 82 97 0.10558385129148073 8 5237 9 5133 10 3974
13014 1.0258984533210163 -1.9949345513132402 5.1353360619279531 79 45 58 0.37611059786287843 5 5738 9 5101 10 3783 4 1679 11 4001 2 394 3 413
13013 -1.2973954965301213 -2.0065379721740491 6.2010314791042296 80 60 71 0.22408541281069266 8 5442 9 5098 4 2232 5 6360 1 1757
13012 5.7453947643256204e-05 -1.9537139724051045 5.4389748737742183 82 47 52 0.28080172231782136 7 5458 8 525 9 5092
13011 3.4501630621435737 -2.4970692435003401 5.4091971603825648 76 61 88 0.12379343631799447 8 5038 9 5010 10 3860 11 471
13010 3.448419674018818 -2.4980869301286908 5.4073463524907721 76 61 88 1.0751564749331171 6 9038 8 5037 9 5009 10 3859 11 472
13009 3.5322922933030689 -2.5414208918335817 5.3831455600250147 137 115 130 0.62673411786526556 6 8995 9 4977 10 8078 4 13187 11 8467 3 725 2 4937
13008 3.5955233997842684 -2.5674018935218745 5.3770088459389642 109 82 105 0.22572667061830817 6 5265 9 4965 4 9577
13007 2.6649007491466699 -2.4889406789169111 5.5468502958534991 80 56 78 0.27521399859794743 8 5033 9 4961 10 3713
13006 -0.19972868128461935 1.4249341604159593 3.769154080302128 70 57 70 0.16944587155224197 8 4990 9 4919 10 3685
13005 -0.18237269846889687 1.4219980661754552 3.7679194632997417 54 33 48 0.048309821548416003 8 4984 9 4918 10 7968 11 8099
13004 -0.24333652029694217 1.4249398585572177 3.8025947588481488 55 47 62 0.28898263932286256 8 4979 9 4916 10 7969
13003 0.15975628203385009 1.4292482004617644 3.6923258941379995 76 78 96 0.7958629316996445 8 4992 9 4915 10 7959 11 3685
13002 -1.0810899725605172 1.4728556232012338 4.6643154305745211 74 83 92 0.96485248953688574 8 4912 9 4870 10 7932
13001 -0.032761513736503448 1.2783477289595806 3.7545702936328258 109 82 91 0.72699846127196344 8 4932 9 4856 10 7866
13000 0.15765079111047323 1.2798263076314791 3.7273680673232574 118 84 95 0.35269628318216995 8 4922 9 4847 10 7862 2 4313
12999 0.30874142884452443 1.281203067786107 3.702372855404664 116 80 89 1.0478939955109603 8 4937 9 4839 4 4389
12998 -0.54179952717603141 1.3062151667735487 4.2392194106373902 91 62 66 0.49374680110797281 8 4888 9 4803 10 7851 11 8049 2 4385 3 8034
12997 -0.88711257581916647 1.4817682697166403 5.239049991135448 80 60 64 0.10796165080048818 8 4872 9 4786 10 7827 11 8065
12996 -1.0363729840889715 1.4724528862945017 5.2637505523351296 80 60 62 0.14245417126219295 7 4583 9 4785 10 7830 11 8071
12995 -1.0363602135416228 1.4724929712012194 5.2638912605556092 80 60 62 0.12021892862910952 7 4582 9 4784 10 7829 11 8070 2 4414
12994 -1.0244577030811732 1.4147622583417152 5.2648815097056332 93 64 66 0.36293811298934392 8 4839 9 4769 10 7809 11 8041 2 4397 3 4495
12993 -0.66363678828618244 1.4185071342269784 5.2040738592454137 30 27 26 1.0153659410136722 8 4840 9 4765 10 11339 11 11402
12992 -1.741357712773095 1.5172094706441925 5.9522312540002025 49 48 54 0.46964578621825903 8 4818 9 4760 10 11359 11 13579
12991 -1.6832112003001189 1.5182097330629545 5.940178999146041 33 28 27 0.09798149295077041 8 4821 9 4756 10 11356
12990 0.22950612774395404 1.1058314307363908 3.7851268149520205 138 90 110 0.12480428650559662 8 4837 9 4747 10 7763
12989 -2.0108322734525754 1.4761728174044841 6.0055183705591046 62 61 71 0.20956163500575709 7 4521 9 4746 10 11348 11 8088
12988 -0.68645729145180556 1.3813931125505987 5.2099681465244521 71 51 52 0.20388649794054206 8 4816 9 4744 10 7784 11 8005 2 4338
12987 -0.68645729145180556 1.3813931125505987 5.2099681465244521 71 51 52 0.20388649794054206 8 4817 9 4743 10 7783 11 8004 2 4337
12986 -1.5974369641503505 1.4834093646461135 5.9391337902225558 96 85 94 0.44482131703560257 7 4537 9 4733 11 11440
12985 -0.74575953569217146 1.3605842253671345 5.2229909566435548 70 55 49 0.29511796471635593 8 4805 9 4724 10 11321 11 11383 2 8002 3 8032
12984 -0.7140737716563611 1.361964888020921 5.2184938847895186 70 55 52 0.38293406958046883 8 8455 9 4722 10 11320 11 11378 2 8000 3 8029
12983 -1.6002516363950707 1.4425558606880142 5.9391040933259189 46 43 52 0.21736056760411587 7 4506 9 4708 10 7779 11 11419 2 8084
12982 -1.7192777555688032 1.431625093763625 5.9632288799775424 96 91 97 0.11120491807364818 7 4500 9 4704 10 7777 11 8044 2 8092
12981 -1.7516778599534211 1.4216196310976679 5.9771719029249546 74 73 85 0.21735112004357821 7 4492 9 4699 10 7770 11 11421 2 8089
12980 -1.2658779098651132 1.4291449656159387 5.8916906349609581 85 79 81 0.10896368492738896 8 4757 9 4698 11 11398
12979 -1.2188328295080835 1.4273943888212528 5.883854261496837 45 40 54 0.41772618775095749 8 4755 9 4696 10 7761 11 11395 2 8034
12978 0.18086546403762219 1.032152914076905 3.7962368760196918 125 93 107 0.14460471970619382 8 4778 9 4689 10 7721
12977 -1.2182277911566493 1.4140039198149121 5.8951598466985056 90 79 87 0.64069119743871783 8 4744 9 4688 10 7757 11 11386 3 10348 2 8028
12976 -1.235305489740097 1.4154277077694961 5.901557821137585 52 47 62 0.54858815664629756 8 4747 9 4687 10 7756 11 8001
12975 -1.7652546382351455 1.3794495311470985 6.021630236898508 126 120 129 0.16897288066867849 8 4723 9 4669 10 11289 11 11403 2 10420
12974 -1.2957518990261492 1.3886620345620992 5.9342790445652618 55 53 67 0.17433157410733091 7 4475 9 4665 10 7739 11 7991 2 4357 3 8078
12973 0.49391603420357011 1.0161489521640921 3.7465180681045496 92 44 58 0.35441123172835293 8 4758 9 4659 10 7696
12972 1.1891591826473373 1.0259567049295095 3.6295406907657082 139 93 106 0.20706237858539381 8 4771 9 4652 10 7681
12971 -1.5488279790595609 1.3533060812583635 6.0181285423425095 115 105 114 0.19335118762942835 8 4694 9 4645 10 7729
12970 -1.934774385998449 1.3428145185127791 6.0971891854554707 128 115 129 0.25539318233149505 7 4429 9 4643 10 11265 11 11400 2 10419
12969 -1.8191620543263076 1.3415405370880993 6.0853099924724665 129 125 132 0.44651624374008947 7 4431 9 4634 10 11249 2 10414
12968 -1.3205949508858403 1.3405963298232666 6.0081865376619259 61 59 72 0.11530649072532818 7 4442 9 4621 10 7711 11 11358 2 7995 3 10327
12967 -1.3219916009993806 1.3269065183382294 6.0113095911340189 83 78 94 0.21608729754398215 7 4430 9 4605 10 7703 11 7959 2 4315 3 8046
12966 0.1819279118202678 0.9488508222213482 3.8001076465089438 130 84 93 0.14979228712014259 8 4692 9 4601 10 7673
12965 -0.097774440141830038 0.92775186481771377 3.8506810364023192 134 87 98 0.6357356100680186 8 4669 9 4588 10 7670 11 7834
12964 -0.85017839015681618 1.1430063248343234 5.3216905958327931 92 71 70 0.36255587033762721 8 4633 9 4560 10 11112 11 7895
12963 0.18902269451429762 0.89376684747172142 3.8041436576194503 134 91 104 0.19270162298982396 7 4413 9 4556 10 3529
12962 -0.68830199785037549 1.1141040975951795 5.2940779869588752 41 26 31 0.35911354355036529 8 4610 9 4543 10 7617 11 7867 2 4233
12961 -1.2548629194397538 1.2223114788506264 6.0145399753494848 56 49 57 0.30412479609432086 8 4602 9 4542 10 7640
12960 -1.5484410447613741 1.202298455700374 6.059272945448761 109 106 127 0.47552137501869834 7 4337 9 4538 10 3542 11 7922 2 4283 3 8013
12959 -1.3658430403407518 1.2038056312284497 6.0248759628841668 57 43 56 0.25024493298528694 7 4347 9 4535 10 7625 11 11292 2 7941 3 7993
12958 -0.7607356506362053 1.0913019171735396 5.3102648424797714 40 27 30 0.59281310132631682 8 4593 9 4532 10 7602 11 11231 3 4362 2 7861
12957 -0.66381763834402563 1.0910576561283158 5.2966642167982725 47 21 25 0.55929168131422569 8 4590 9 4526 10 7595 11 7839 2 4220
12956 -1.970407885521422 1.1757639812744782 6.1311962750425817 61 52 61 0.42057732118351615 7 4309 9 4523 10 7636 11 7938 2 7982 3 8057
12955 -1.4293835032536304 1.1766239387350972 6.04024075299305 97 79 83 0.33920547677892748 8 4558 9 4516 10 7605 11 7894 2 7932 3 7985
12954 -2.0523733247249516 1.1499835949466899 6.1470545463794224 76 64 83 0.67169217299822526 8 4529 9 4500 10 11080 11 11320 2 7977 3 8055
12953 -0.73257657932604314 1.0606856062130505 5.3074151290175235 39 31 30 0.063181468630490248 8 4555 9 4495 11 7822
12952 -0.73257657932604314 1.0606856062130505 5.3074151290175235 39 31 30 0.063181468630490248 8 4554 9 4494 11 7821
12951 0.87452387805489662 0.84196173715803924 3.6895766120072526 106 59 65 0.22129171979195025 8 4594 9 4489 10 10990
12950 -0.74525179690252064 1.051701621744852 5.3078643470343723 73 58 56 0.11255573717442194 8 4547 9 4486 10 11043 11 7816
12949 -1.6822256934865247 1.1387603965124755 6.0746054942056649 69 59 78 0.49117247915584744 8 4523 9 4474 10 7583 10 11062 11 11271
12948 -0.66797268267354337 1.0388422588136386 5.2953967554230283 49 23 27 0.061169861813546153 8 4531 9 4455 10 11020 11 11200
12947 -0.81329394266293231 1.0221130213802527 5.3199936520804716 56 45 51 0.2313243164652794 8 4506 9 4447 10 7546 11 11197
12946 -0.69019618311437247 1.0183724188205385 5.3021688483347438 45 24 31 0.26394646675011124 8 4498 9 4442 10 7539 11 11188 2 7801
12945 -0.7255696012933488 0.93091179876819929 5.3085497938457475 74 53 52 0.38826005001163505 8 4423 9 4387 10 7505 11 7756 2 4130 3 4272
12944 3.7514655868484206 1.1139569183224436 5.1486853562485742 109 88 106 0.26492994907001616 8 4489 9 4385 10 3386
12943 3.5474709541440488 1.1027608925525445 5.1891951232556348 89 72 102 0.31441686717088863 7 9148 9 4376 10 7437 4 9046
12942 3.7959527155293222 1.0969379369025516 5.1452519660767662 94 78 101 0.20936119184714624 5 12795 9 4369 10 7421 4 9071
12941 -1.7519406889583904 0.98866456104998013 6.0966641855937889 96 82 101 0.34713596301911304 8 4376 9 4363 10 7507 11 11180 2 7833 3 7932
12940 -1.7520673916707903 0.98987213453409495 6.1022700517008417 96 82 101 0.14065825224432624 8 4375 9 4362 10 7506
12939 -1.8071842879691495 0.97457989489413754 6.1095868134685869 117 102 117 0.21873973550478887 7 4169 9 4348 10 10951 11 11174 2 10229 3 10229
12938 -1.487529935809994 0.94716861213092585 6.073153625975408 50 36 49 0.18467090876283512 7 4141 9 4324 10 7461 11 11143 2 7781 3 7847
12937 -1.2220806440146703 0.9485765876793234 6.0164400986847895 94 83 98 0.37915340259308 8 4336 9 4323 10 10914 11 11124 3 7808
12936 -1.9002266264935066 0.90420060986650508 6.1255185208551994 82 67 96 0.30990528674856616 8 4307 9 4301 10 10905 11 11141 2 10196 3 10191
12935 -1.6737593321488069 0.88785172641110044 6.0881256717549546 84 74 99 0.062352844893073259 8 4285 9 4289 10 7415 11 7728
12934 -1.9267585974847083 0.88284965132647653 6.1360906149789756 76 67 94 0.39023725670428688 8 4278 9 4285 10 10892 11 13344 2 10192 3 11589
12933 -1.4223590611416159 0.88621358840415887 6.0498068308469444 112 87 91 0.19318611247279105 7 4096 9 4282 10 7405 11 7712 2 7729 3 7788
12932 4.0447458622648078 0.96118768051663095 5.1060133749426209 126 105 112 0.21593682910961942 5 12664 9 4280 10 3305
12931 -1.938368458430507 0.85280487924825699 6.1352350816693377 113 105 126 0.25183567785690453 7 4071 9 4262 10 7398 11 11106 2 7757
12930 -1.7638923763937333 0.84975166786470191 6.1046893862581815 107 100 122 0.19110792915412089 8 4251 9 4259 11 11097
12929 -1.3928134513864474 0.84995004397543039 6.042573771159816 89 66 72 0.34428026502806791 8 4252 9 4255 10 7380 11 7690 2 4093 3 4258
12928 -1.6601893960197069 0.84121169171214516 6.0912683295795027 120 112 133 0.14049088513886229 8 4241 9 4249 10 10863
12927 -1.996965957939812 0.82754462740695722 6.1441219708170447 131 121 145 0.19768455142948924 7 4052 9 4242 10 7377 11 11096 2 7743 3 10150
12926 -2.0817783740994744 0.8172316256477391 6.1619405755325181 126 124 148 0.1239860685259218 7 4042 9 4232 10 10854 2 7742 3 10153
12925 -1.3301041552896018 0.82662228368615775 6.0372806123679723 110 93 106 0.23375064836019252 8 4231 9 4228 10 10839 11 11074
12924 -2.1029336663996765 0.81395428909769652 6.1632561127677743 92 86 115 0.27010861094630007 7 4040 9 4227 10 7370 2 7741 3 10152
12923 -1.7427208109182939 0.80050610121023902 6.098306401658383 119 105 125 0.39242869204310288 7 4034 9 4218 10 7352 3 10108 2 10147
12922 3.7127716523297645 0.86476776833059588 5.1709546841204714 136 114 126 0.22838504694315698 5 12568 9 4217 10 7301 4 12507 1 10197
12921 -1.5370575846960897 0.80144167809658751 6.0726817035035259 102 90 114 0.30938397024206488 8 4211 9 4215 10 10823 11 11067
12920 -0.7733517599640497 0.71931912128431519 5.2582877828209202 93 52 56 0.2820432658293614 8 4217 9 4214 10 7341 11 11031 2 7635
12919 -1.7635267774530652 0.79270487661249045 6.1070498677203471 94 80 105 0.33931706017292718 8 4201 9 4212 11 13309 3 11540
12918 -1.7262485878099019 0.77467948511847218 6.099189971609972 108 104 125 0.61172505747174544 8 4182 9 4199 10 7336
12917 -1.4092791651597987 0.77048007690853804 6.059076112732142 80 69 86 0.11103566429864231 7 4018 9 4190 10 7325
12916 -1.8091979477620181 0.76122735125159313 6.1180722880505281 93 70 88 0.36073834196904236 7 4004 9 4187 10 7329 11 11056 2 7679 3 10099
12915 4.0401559428116238 0.81742609937851629 5.1120116007586054 147 124 136 0.56331528576007928 5 12548 9 4179 10 7264 4 12480 1 10176
12914 4.0399372292917537 0.81763070963940143 5.1136996839408138 147 124 136 0.45266330688573686 5 12547 9 4178 4 12479 1 10175
12913 -1.3210092145376127 0.76049168330017358 6.0483268395626411 79 77 93 0.43328460711527816 7 8710 9 4173 10 10781 11 11027 2 7644
12912 -0.76731739986308711 0.68710016549451458 5.3472279005231389 98 61 68 0.17218298345196342 7 4011 9 4168 10 7309 11 7618 2 3976
12911 -0.76731739986308711 0.68710016549451458 5.3472279005231389 98 61 68 0.17218298345196342 7 4010 9 4167 10 7308 11 7617 2 3975
12910 1.6929431287868029 0.7006538567706333 4.8435592146477431 119 68 85 0.25410328126347065 8 7887 9 4164 10 10743
12908 -1.313048876100904 0.72867701843842803 6.0366449239100755 90 72 86 0.32182699497252548 7 8670 8 4127 9 4145 10 10762 11 11006 2 10085 3 10041
12907 3.3425142892701873 0.75985006626869755 5.2525079657346927 133 116 131 0.67234020870129374 8 4171 9 4129 4 12425 6 8209 1 10138
12906 -1.9321414255937606 0.71140037260666733 6.1446782415992871 73 65 88 0.11659775622165421 7 3958 9 4127 10 7293 11 11022 2 7650 3 7715
12905 4.1275019158780699 0.73984824931173221 5.1026213882375622 133 112 125 0.49841830539209675 5 14856 9 4115 10 3184
12904 0.17112391230603843 0.63168590214551434 5.1984228098239109 154 111 129 0.28840611502534913 7 3979 9 4105 11 7545
12903 -0.69078621034648269 0.62412222387093885 5.337939930237332 108 66 69 0.12068417376773242 8 4093 9 4104 10 7246
12902 0.33890528286354565 0.62913010479341003 5.1710259731707966 153 111 127 0.58317943176847653 7 3980 9 4101 10 7225 11 3341
12901 -0.25109828023107417 0.61313611061381157 5.2690514675107538 146 103 120 0.32457658172279219 7 3943 9 4094 10 7220 11 7549
12900 -1.3673770141282382 0.67172974347404302 6.0535189487098142 47 36 49 0.22342526371823387 7 3923 9 4092 10 7238 11 10977 2 7595 3 7645
12899 0.83528336901647371 0.61300190177140135 5.0878472509543844 127 87 113 0.19530358654946059 8 4079 9 4083 10 7194
12898 -0.45556013584470301 0.60375758392668066 5.3067608456428372 103 73 80 0.2756189906515587 8 4058 9 4081 10 7209 11 7548
12897 0.74848970830568184 0.6081152405073611 5.1025942418991566 142 108 125 0.23698292633586368 7 3965 9 4080 10 3176 11 3305
12896 0.74848970830568184 0.6081152405073611 5.1025942418991566 142 108 125 0.23698292633586368 7 3964 9 4079 10 3175 11 3304
12895 -0.55946116873582241 0.59150281049027842 5.3215160033641302 140 92 104 0.18130346641153461 8 4035 9 4066 10 7198
12894 -0.86614469300413777 0.58783575710928193 5.3684277498671396 120 73 84 0.43277417377712679 8 4033 9 4065 10 7200 7 8573
12893 0.56824575425276924 0.58336918178575137 5.1294865064666313 139 88 97 0.13826868872796985 8 4031 9 4049 10 7171 11 7487
12892 -0.45298049547406033 0.57395686179698846 5.3009172140066125 132 85 92 0.40905856994374579 7 3910 9 4042 10 7178 11 7518
12891 1.1300374265301549 0.57657521237409837 5.0382399546728838 142 97 116 0.27642005585664314 5 3926 9 4032 10 7142 11 3263
12890 0.54222984529092988 0.56575832932788095 5.1326723700600096 137 90 100 0.21144759744874772 8 4008 9 4027 10 7141
12889 -2.2446393327263459 0.61094449625115455 6.1981569316636911 141 128 146 0.40922961388894091 7 3870 9 4024 3 11490
12888 -1.7095325741634926 0.60947567690362592 6.1259609131858062 90 90 103 0.48635353562933414 8 3980 9 4015 10 10643 11 10947
12887 -1.3726497302709773 0.60620221241035277 6.0636619914169465 91 80 97 0.36510143182235016 8 3975 9 4013 10 7153 11 10923 2 7546 3 7590
12886 0.91263286158168633 0.55694738260281529 5.0707290892066323 146 90 103 0.39634211808140107 8 3994 9 4007 10 7120
12885 -1.4701543447436072 0.59678774043013605 6.0797368618013916 45 32 44 0.16520268621615355 7 3866 9 4000 10 7140
12884 -1.3171633695449663 0.59484137247633806 6.0565961116168401 52 40 53 0.14202449727530259 8 3966 9 3995 10 7134 11 10907 2 7527
12883 -1.5307780165441434 0.59336275534588179 6.0882382829049098 59 48 61 0.13202829616665643 8 3962 9 3993 10 10621
12882 -1.5307092009324041 0.5933061866933762 6.0859826610220997 59 48 61 0.20382422267161793 8 3961 9 3992 10 10620 11 10917
12881 -0.34794916003787224 0.53507062174177034 5.2920816229832575 138 104 120 0.17922594264128058 7 3877 9 3990 10 7117 11 3285
12880 3.7328279182679527 0.60906410223551133 5.1782331386620557 115 91 106 0.1630764700970575 8 3996 9 3985 4 12337 1 6907
12879 -1.2390800534472215 0.58565663501377474 6.0457874871234409 45 42 51 0.37124701487497613 8 3954 9 3982 10 7119 11 7514
12878 -1.632391084756242 0.58458153535430057 6.1084070694534471 112 92 103 0.4323727818777518 7 8496 9 3980 10 7125 11 7532 2 3893 3 7594
12877 -0.56267116729244082 0.51937941038475632 5.323016988908619 139 96 106 0.18698784646233871 7 3851 9 3963 10 7097 11 7456
12876 -1.6349633343620213 0.56996971298563759 6.1035717731041812 79 57 67 0.24228958216915253 8 3925 9 3962 10 10600 11 10896 2 7525 3 7577
12875 -0.42738163370247112 0.51502096686293708 5.3041795323826202 132 99 113 0.05444499962573205 7 3846 9 3957 10 7085 11 7445
12874 -0.97744155394708554 0.51108401762326527 5.3950141196228349 57 47 55 0.20591971744232437 8 3923 9 3956 10 7092 11 7479
12873 -0.061150785132461763 0.51378582954425267 5.2415856066546844 140 92 101 0.30121030260554893 7 3853 9 3953 10 7072 11 7425
12872 -1.6536161945354351 0.56093841958119106 6.1017053166055772 114 99 112 0.2427540589756107 7 3827 9 3951 10 7089 2 7515
12871 1.1493906021272013 0.5132325763543979 5.0393630938868545 94 66 80 0.44620873368957692 5 8618 7 3879 9 3946 10 3104 4 3877 11 3206 1 2996
12870 0.63295982249390892 0.50850506229041359 5.1265274601368187 144 98 111 0.21211524389329872 5 3871 7 3862 9 3939 10 3103 11 3216
12869 -0.41510730410576047 0.50322320567791279 5.3035125177453457 95 61 78 0.28752857929101222 8 3904 9 3936 10 7066 11 7428
12868 -0.18347398722664746 0.50126267263559521 5.2657125185405391 79 46 57 0.10484912529993951 8 3905 9 3934 10 7055 11 7416
12867 1.070745854772013 0.50370851556184026 5.0513437599010809 151 114 132 0.096609043220277163 8 3919 9 3933 10 7036 11 7361
12866 2.4185806528485689 0.50672763076753757 4.8203578887239802 104 64 84 0.14902627591931439 8 3936 9 3931 10 3082 11 3169
12865 -0.67982158752666588 0.48906443778733316 5.3434188349996976 133 92 104 0.1497017707473963 8 3881 9 3922 10 10559
12864 -0.18004592677418399 0.4866771423315609 5.262828645117148 138 90 104 0.26715953282775246 8 3875 9 3910 10 7033
12863 0.2493744551950963 0.48463493655349438 5.1906166348802989 141 91 102 0.21461537315863374 8 3869 9 3907 10 7021 11 7378
12862 0.31521048926758161 0.48210802496416405 5.1809739773228332 140 91 108 0.13858341434110047 8 3865 9 3903 10 7018
12861 0.18816966162527421 0.46605239483629912 5.2015024414724449 145 94 111 0.12101680345045675 7 8448 9 3882 11 7347
12860 -1.9029491634822016 0.5131520813490289 6.1455151081855517 105 101 124 0.28322047932471717 7 3795 9 3879 10 7016 11 7454 2 3852 3 7547
12859 1.8339817696808063 0.45555558422468706 4.9240123266447302 150 102 116 0.15877637560071081 8 3841 9 3864
12858 0.95262792602882762 0.45100752071175049 5.0809482420299616 75 37 55 0.041072537018060351 5 8535 9 3859
12857 0.61438215687025843 0.43890756051389512 5.1280856721043353 140 93 109 0.50186147228843092 7 8426 9 3853 10 3042
12856 1.0448796172376715 0.43587787949527829 5.0566203554248368 143 100 116 0.4130253439876993 8 3812 9 3845 10 6947 4 3829
12855 -1.6019547490615289 0.47410413567487808 6.1042634023546292 128 110 124 0.168382822043706 8 3797 9 3833 10 10486 11 10765 2 7407 3 9879
12854 3.3259107112986217 0.46637448974322776 5.2624845028477329 110 83 91 0.10421005488399206 8 3802 9 3825 10 3015
12853 -1.736667347499347 0.46105082271744824 6.1327543541287444 91 86 102 0.39771142547138966 7 3763 9 3822 10 6935
12852 -1.2473015962963625 0.45690067991423489 6.0481621871529585 93 80 95 0.25034401297265074 8 3778 9 3816 10 10456 11 10720 2 7364
12851 -1.398373097108877 0.44747575050261623 6.0740281047945981 89 78 85 0.5574294442022536 7 3753 9 3799 10 6921 11 10712 2 7360 3 7428
12850 -1.569624696626325 0.43919453868148389 6.1067295273144824 116 97 107 0.32938397015548976 8 3748 9 3791 10 10439 11 10704 2 9915 3 11387
12849 0.40485297797679121 0.3911219984492047 5.2466561161164087 144 86 99 0.26027309324603148 8 3742 9 3784 10 10422 11 10643 2 7277
12848 -1.4210379316264941 0.42832156961027079 6.0721731056975177 71 59 73 0.21498108743722191 7 3739 9 3783 10 6905 11 10690 2 7348
12847 -1.6820166311401508 0.42342482705482148 6.1087876194974671 120 98 110 0.51513040933970133 8 3733 9 3782 10 6901 2 3717
12846 -0.72071318020146102 0.38339093698398552 5.4777241703184574 94 59 65 1.0750132096251412 8 3730 9 3777 10 6894 11 7287 2 3644 3 7351
12845 1.488652181639901 0.36073584710249706 5.1128253743895629 167 116 133 0.33622497033914056 8 3715 9 3762 11 7203 3 7262 2 7225
12844 -1.1155626074270157 0.36559774685819818 6.0497844808588468 72 59 77 0.39718894220816758 8 3671 9 3720 10 6848 11 7236
12843 -1.5317419916304782 0.36411042560573864 6.1056152344718697 60 44 61 0.089535790250766217 7 3697 9 3717 10 6846 11 10621 2 7282
12842 -1.7615082606273738 0.36324460201083997 6.1326793625440494 65 71 118 0.62744701869416619 7 3695 9 3716 10 6840 11 7250
12841 -2.1850335886089249 0.36108040653636014 6.2182503896030017 93 77 98 0.13458292342707998 7 3686 9 3713 10 6837
12840 -1.9603323381731756 0.35225294304319588 6.1798621695139921 68 63 87 0.31670664683256128 8 3658 9 3708 10 10383 11 13027
12839 -1.3383245566791249 0.34388791684715325 6.0766510962436033 48 37 47 0.53926025442304271 7 3677 9 3696 10 6825 11 7205 2 3602 3 3728
12838 -1.0827585845431207 0.34120438204565062 6.0272304017843208 61 44 56 0.23584070950403091 8 3646 9 3694 10 6823 11 10591 2 7251 3 7298
12837 3.0446987446108964 0.3260467719567296 5.3429212091227321 125 121 136 0.57967115284341919 8 7478 9 3689 10 2921
12836 -1.5678057204519262 0.3335176534281562 6.117725480787934 70 52 66 0.1163906803137978 8 3640 9 3683 10 6819 11 10590 2 7256
12835 -1.5321873268126782 0.32947925298711067 6.1083418359699095 98 85 105 0.20159881361700624 7 3661 9 3677 10 6814 11 7188 2 7250 3 7300
12834 3.5845172309882902 0.2956760555764153 5.2348887722683974 137 119 131 0.50492468203065455 8 3618 9 3667 4 8266 11 3029 1 6612
12833 -1.4692998881383301 0.31566633634217678 6.0932362564261577 64 50 62 0.26567075323067946 7 3648 9 3666 10 6809 11 10563 2 7227 3 7286
12832 -2.0263771620438904 0.30957334956874644 6.1812463815008885 86 76 103 0.084637988297746672 7 3636 9 3662 10 6799
12831 0.18531930270889169 0.26667973248857146 5.4111146204119125 91 44 58 0.11304337135015174 8 3598 9 3656 10 2886
12830 -1.5921812146346126 0.28833621992911895 6.1120289324063002 69 51 67 0.43856400667208978 7 3620 9 3647 10 6783 11 10542 2 7201
12829 -0.84546312457168404 0.26368827236726089 5.620790998819877 149 95 113 0.47863885271433598 7 3618 9 3643 11 10532
12828 -2.1296886594159994 0.2653023287359767 6.2002408321842237 129 115 131 0.46845150161652527 7 3603 9 3619 10 6755 2 7183 3 9692
12827 -1.1958256860161196 0.2596871424323034 6.0503464618295322 48 36 51 0.30538143605478729 7 3601 9 3618 10 6758 11 7123 2 3502 3 3638
12826 -1.8216154578907344 0.2501497410830838 6.1474646152428987 99 86 121 0.25874544300989999 8 3564 9 3600 10 6745 11 10502 2 7163
12825 -1.5407653214104897 0.23104632835031319 6.1066040738706828 112 104 117 0.17592220922843965 8 3556 9 3576 10 6717 11 10471 2 7132
12824 -1.5835638709469033 0.22206407633342221 6.1168096668083436 68 67 87 0.27495009893576439 7 3576 9 3569 10 6711 11 10464 2 7125
12823 2.8497319399055971 0.17759701314158843 5.3575737106884764 102 73 91 0.22604328412197675 8 3513 9 3554 10 2824
12822 1.28612736561233 0.16177320596482955 5.2642010570889539 85 41 54 0.0028322845131522399 8 3504 9 3535
12821 -1.8785684643928486 0.19890421634321351 6.1770884697383561 115 106 127 0.60548138257098882 7 3554 9 3529 10 10238 11 12918 2 9730 3 9632
12820 -2.0507885936040178 0.19788183822966698 6.1956333585777177 74 62 85 0.19814177270065972 7 3551 9 3524 10 6680
12819 -0.42033259199292106 0.17554205412672347 5.7090293066181097 120 67 75 0.12438270236781179 8 3507 9 3522 10 6689
12818 3.2634747615101847 0.14115363055413038 5.292047111835454 92 72 92 0.76384006543391847 5 8121 9 3517 4 8098 11 7011
12817 -1.4592371807747002 0.18030550641536133 6.1005433249337635 112 105 121 0.22288030061346759 7 3533 9 3515 10 6674 11 7034
12816 2.027405607511128 0.13834366655867539 5.2869834801963131 134 81 91 0.35804652437605927 8 3470 9 3512 10 6687 11 2950
12815 -1.5192806081910506 0.16135531581601839 6.1099838773697783 94 78 92 0.22780960297085864 7 3503 9 3501 10 6648 11 10382 2 3379 3 7088
12814 -0.69776367490009727 0.12526411536225321 5.607926442046427 96 56 77 0.16461009930638015 8 3449 9 3472 10 6634 11 10359
